NCOLS 326
NROWS 30
XLLCORNER 529602.52992
YLLCORNER 280771.653426
CELLSIZE 100.000000
NODATA_VALUE -99999.000000
1160.0486 1159.7709 1160.5500 1162.8044 1166.6962 1172.2450 1179.2112 1187.2095 1195.5902 1203.6998 1210.9769 1217.0156 1221.7546 1225.2505 1227.7172 1229.3448 1230.2137 1230.4170 1230.1124 1229.4630 1228.6228 1227.7209 1226.8340 1225.9886 1225.1189 1224.1199 1222.8295 1221.0934 1218.7876 1215.7705 1211.8578 1206.9673 1201.2325 1194.8510 1188.0947 1181.2295 1174.4918 1168.1373 1162.4637 1157.6667 1153.7426 1150.6117 1148.0964 1145.9966 1144.0908 1142.1560 1139.9698 1137.3513 1134.1920 1130.5693 1126.8607 1123.3821 1120.2947 1117.5790 1114.9431 1112.1052 1108.8422 1105.0684 1100.9061 1096.4594 1091.7744 1086.8464 1081.6002 1075.9366 1069.7297 1062.9049 1055.4670 1047.4686 1039.0234 1030.2988 1021.5289 1012.8347 1004.1752 995.5883 987.2330 979.1590 971.2592 963.4566 955.7293 948.1196 940.7549 934.0406 928.7257 925.5228 925.0557 927.3882 931.9022 937.8429 944.3378 950.4094 954.9792 957.4109 957.6022 955.8566 952.9044 949.4181 945.9756 943.0696 941.0938 940.1708 940.1340 940.7640 941.8070 943.1695 944.9197 946.9589 949.0091 950.7811 952.0003 952.8037 953.7318 955.2706 957.8303 961.6841 966.9651 973.5432 981.0425 988.9957 996.8661 1004.2426 1010.8448 1016.6802 1022.0024 1026.9731 1031.6550 1035.9187 1039.4889 1042.3641 1044.7666 1046.7407 1048.1827 1049.0670 1049.4346 1049.3199 1048.7540 1047.8169 1046.6250 1045.2692 1043.8187 1042.3329 1040.8597 1039.3926 1037.8837 1036.2784 1034.5227 1032.6309 1030.6691 1028.7361 1026.9502 1025.3948 1024.1249 1023.1442 1022.4210 1021.9149 1021.5831 1021.4205 1021.4425 1021.6199 1021.8886 1022.1115 1022.1074 1021.7090 1020.7607 1019.1368 1016.7433 1013.6303 1009.9429 1005.9189 1001.8416 997.9109 994.2718 991.0039 988.1474 985.7155 983.6952 981.9661 980.3646 978.8656 977.5352 976.5929 976.3061 976.6585 977.4785 978.5178 979.4999 980.2341 980.5681 980.3149 979.2938 977.5083 975.0524 972.0397 968.5820 964.7097 960.4285 955.8373 951.1172 946.7400 943.2541 940.8382 939.4631 938.7711 938.3127 937.9691 937.7518 937.6168 937.5017 937.3737 937.2143 937.0242 936.8187 936.6584 936.6265 936.8341 937.4041 938.4657 940.1417 942.5064 945.5955 949.3268 953.5637 958.1027 962.6755 966.7825 969.8777 971.5943 971.6938 970.3005 967.7249 964.6241 961.7141 959.4381 958.0735 957.5017 957.4907 957.8583 958.4404 959.0898 959.7017 960.3473 961.1726 962.4271 964.3343 966.8671 969.8795 973.0143 975.8762 978.1594 979.6498 980.4212 980.6165 980.3505 979.7190 978.7704 977.5601 976.2205 974.8986 973.7251 972.8043 972.1565 971.7834 971.6904 971.8720 972.2804 972.8691 973.6332 974.5741 975.6837 976.9895 978.6475 980.7985 983.4356 986.4445 989.4561 992.0680 993.9406 994.7864 994.4420 992.8666 990.3246 987.1063 983.3990 979.4282 975.5928 972.2343 969.4299 967.1443 965.1592 963.2773 961.4555 959.6840 957.9703 956.2982 954.5787 952.7632 950.9430 949.2335 947.7527 946.5912 945.7666 945.2761 945.0934 945.1935 945.5630 946.2177 947.2386 948.7168 950.7435 953.3884 956.6708 960.5449 964.8322 969.2810 973.5164 977.2190 980.2304 982.5128 984.2433 985.5780 986.5690 987.2610 987.7098 987.9572 988.0140 987.8581 987.6514
1159.5654 1159.6523 1160.9622 1163.9816 1168.8248 1175.4170 1183.3495 1192.0848 1200.8942 1209.1008 1216.2318 1221.9827 1226.3835 1229.5409 1231.6256 1232.7943 1233.1506 1232.8129 1231.9515 1230.7394 1229.3390 1227.8857 1226.4573 1225.0790 1223.6786 1222.1410 1220.2865 1217.9391 1214.9476 1211.1493 1206.3513 1200.4775 1193.6920 1186.2671 1178.6304 1171.2228 1164.4752 1158.7526 1154.2944 1151.1263 1148.9016 1147.2699 1145.9498 1144.7155 1143.4281 1141.9735 1140.2645 1138.1949 1135.6237 1132.5861 1129.4220 1126.4260 1123.7665 1121.4254 1119.1001 1116.4736 1113.2507 1109.3234 1104.8748 1100.0779 1095.0491 1089.8334 1084.3741 1078.5948 1072.4025 1065.7274 1058.5385 1050.8732 1042.8632 1034.6658 1026.4608 1018.3066 1010.0932 1001.8025 993.5565 985.3770 977.1391 968.7705 960.2850 951.8456 943.8066 936.7355 931.4500 928.6318 928.7565 931.7430 936.8420 943.2104 949.9395 956.0523 960.5107 962.7214 962.6241 960.5440 957.2101 953.3156 949.4855 946.2637 944.0974 943.1365 943.2131 944.0920 945.4900 947.2578 949.3824 951.7093 953.9324 955.7662 956.9684 957.6608 958.3218 959.4147 961.3665 964.4787 968.9240 974.6561 981.4238 988.8669 996.5327 1003.9538 1010.6725 1016.5916 1021.9314 1026.8730 1031.5433 1035.8829 1039.6843 1042.9092 1045.6583 1047.9126 1049.5563 1050.5754 1051.0392 1050.9852 1050.4277 1049.4346 1048.1146 1046.5547 1044.8257 1043.0236 1041.2590 1039.5723 1037.9486 1036.3300 1034.6335 1032.8519 1031.0331 1029.2422 1027.5540 1026.0239 1024.6924 1023.5765 1022.6783 1022.0043 1021.5643 1021.3713 1021.4343 1021.6862 1022.0063 1022.2217 1022.1310 1021.5850 1020.4677 1018.6758 1016.1287 1012.9039 1009.1780 1005.1754 1001.1408 997.2532 993.6477 990.4045 987.5720 985.1856 983.2576 981.6522 980.1718 978.7979 977.6226 976.8760 976.8208 977.3813 978.3064 979.3369 980.2236 980.8253 981.0466 980.7272 979.6930 977.9146 975.4396 972.3741 968.8442 964.9207 960.6559 956.1581 951.5931 947.3619 943.9279 941.4548 939.9364 939.0911 938.5554 938.2103 938.0317 937.9478 937.8738 937.7684 937.6111 937.4023 937.1578 936.9356 936.8124 936.8799 937.2360 937.9813 939.2164 941.0309 943.4966 946.6030 950.2900 954.3823 958.6246 962.5468 965.6310 967.5067 967.9236 967.0062 965.0588 962.6763 960.4909 958.8439 957.9254 957.6304 957.7686 958.1818 958.7266 959.2872 959.7825 960.2568 960.8212 961.7251 963.2151 965.3468 968.0624 971.0396 973.8981 976.3235 978.0640 979.0580 979.3123 978.9084 977.9694 976.7077 975.3394 974.0045 972.8136 971.8378 971.1233 970.6592 970.4262 970.4257 970.6550 971.0779 971.6617 972.4111 973.3370 974.4425 975.7521 977.3698 979.3772 981.7212 984.2800 986.7990 988.9956 990.5872 991.3065 990.9361 989.3678 986.8023 983.4796 979.5746 975.3335 971.2529 967.7711 965.0156 962.9610 961.3036 959.7527 958.1960 956.5849 954.9616 953.3578 951.7337 950.0685 948.4241 946.8890 945.5841 944.6046 943.9651 943.6514 943.6097 943.7952 944.2003 944.8514 945.8439 947.2894 949.3136 952.0042 955.3544 959.2792 963.5436 967.8803 971.9966 975.6423 978.6680 981.0176 982.8055 984.1473 985.1134 985.7768 986.2281 986.5297 986.6813 986.6348 986.4872
1156.9600 1157.2646 1158.9271 1162.4845 1168.0441 1175.4795 1184.2432 1193.6699 1202.9669 1211.4371 1218.6699 1224.4312 1228.8085 1231.9344 1233.9353 1234.9352 1235.0566 1234.4387 1233.2587 1231.6951 1229.9172 1228.0670 1226.2278 1224.4276 1222.5916 1220.5964 1218.2454 1215.3374 1211.6829 1207.0892 1201.3566 1194.4105 1186.4301 1177.7627 1169.0280 1160.8666 1153.8981 1148.5928 1145.1407 1143.4199 1142.7867 1142.6245 1142.4701 1142.0101 1141.1715 1139.9565 1138.4563 1136.6919 1134.5497 1132.0551 1129.4901 1127.0872 1124.9525 1123.0319 1121.0286 1118.6257 1115.5129 1111.5796 1107.0286 1102.0703 1096.8828 1091.5603 1086.0735 1080.3643 1074.3475 1067.9424 1061.0790 1053.7893 1046.2496 1038.6132 1030.9822 1023.3422 1015.5247 1007.4683 999.2710 990.9426 982.3621 973.4814 964.3663 955.3157 946.9229 939.8887 935.0195 932.8696 933.6578 937.1400 942.5312 949.0039 955.7168 961.7509 966.1093 968.2078 967.9576 965.6566 962.0106 957.7365 953.5345 949.9990 947.5974 946.4940 946.5306 947.4875 949.0999 951.1794 953.6149 956.1921 958.5884 960.5284 961.8019 962.5120 963.0679 963.8934 965.4081 967.9261 971.6524 976.6120 982.6596 989.5332 996.8633 1004.1611 1010.8545 1016.7724 1022.1024 1027.0414 1031.7722 1036.2793 1040.3821 1043.9805 1047.0443 1049.5037 1051.2615 1052.3394 1052.8517 1052.8398 1052.2892 1051.2490 1049.8199 1048.0911 1046.1453 1044.1082 1042.1317 1040.2776 1038.5355 1036.8447 1035.1149 1033.3418 1031.5819 1029.8734 1028.2413 1026.7074 1025.2921 1024.0186 1022.9133 1022.0244 1021.4122 1021.1144 1021.1443 1021.3988 1021.6973 1021.8243 1021.5519 1020.7417 1019.3140 1017.2202 1014.4439 1011.1139 1007.4424 1003.6128 999.7866 996.0804 992.5861 989.4005 986.6210 984.3162 982.5193 981.0855 979.7947 978.6283 977.6874 977.1791 977.3265 978.0170 978.9686 979.9372 980.7111 981.1813 981.2822 980.8796 979.8197 978.0560 975.6033 972.5523 969.0271 965.1370 960.9857 956.6865 952.3794 948.3701 945.0092 942.4476 940.7192 939.6498 938.9944 938.6309 938.4838 938.4479 938.4146 938.3333 938.1806 937.9566 937.6770 937.3968 937.1865 937.1160 937.2568 937.6888 938.4984 939.7864 941.6521 944.1531 947.3040 950.9570 954.8715 958.6018 961.6545 963.6565 964.3462 963.8408 962.4329 960.6757 959.1450 958.1010 957.6569 957.6929 958.0249 958.5073 959.0163 959.4757 959.8384 960.1269 960.4202 960.9627 962.0170 963.7123 966.0699 968.8020 971.5449 973.9742 975.8028 976.8561 977.0325 976.4101 975.1639 973.6736 972.3044 971.1558 970.2537 969.5956 969.1682 968.9435 968.8964 969.0266 969.3318 969.7829 970.3554 971.0648 971.9322 972.9675 974.1929 975.6810 977.4789 979.5081 981.6495 983.7386 985.5818 986.9246 987.5050 987.0789 985.4974 982.8993 979.4821 975.4524 971.1060 967.0010 963.6168 961.0546 959.2507 957.8646 956.5693 955.2165 953.7353 952.1831 950.6226 949.0704 947.5419 946.0692 944.7118 943.5930 942.8105 942.3688 942.2355 942.3220 942.5593 942.9477 943.5256 944.3975 945.6942 947.5848 950.1902 953.5062 957.4286 961.6673 965.9278 969.9648 973.5719 976.6140 979.0235 980.8568 982.1947 983.1341 983.7856 984.2838 984.7115 985.0404 985.1794 985.2295
1152.5100 1152.9908 1154.8905 1158.7657 1164.7607 1172.7570 1182.1307 1192.1400 1201.9449 1210.8250 1218.3920 1224.4404 1229.0852 1232.4650 1234.6630 1235.7729 1235.9316 1235.2930 1234.0358 1232.3403 1230.3824 1228.3113 1226.2192 1224.1415 1222.0056 1219.6849 1216.9681 1213.6283 1209.4270 1204.1344 1197.5399 1189.5605 1180.3646 1170.3628 1160.3824 1151.2715 1143.8218 1138.6075 1135.7994 1135.1731 1135.8547 1136.9846 1137.8607 1138.0336 1137.4769 1136.3073 1134.8129 1133.1697 1131.3306 1129.3279 1127.3645 1125.5780 1123.9681 1122.4193 1120.6494 1118.3794 1115.3633 1111.5197 1107.0228 1102.0826 1096.9275 1091.6951 1086.3823 1080.9397 1075.2661 1069.2616 1062.8368 1056.0306 1049.0640 1042.0780 1035.0795 1027.9749 1020.5488 1012.7072 1004.5317 996.0375 987.1351 977.8279 968.2581 958.8627 950.4470 943.7983 939.6410 938.3358 939.7876 943.5893 948.9883 955.2546 961.7062 967.5330 971.7817 973.8500 973.5660 971.1577 967.2835 962.6798 958.1378 954.3060 951.6606 950.3688 950.2714 951.1701 952.8419 955.0796 957.6907 960.4224 962.9615 965.0504 966.5009 967.3835 968.0226 968.7750 970.0161 972.0689 975.1977 979.4978 984.9020 991.2100 998.0966 1005.0883 1011.6022 1017.4507 1022.8023 1027.8523 1032.7963 1037.5983 1042.0282 1045.9108 1049.1251 1051.5981 1053.3015 1054.3197 1054.8190 1054.8350 1054.3025 1053.2405 1051.7367 1049.8868 1047.7933 1045.5938 1043.4462 1041.4192 1039.5117 1037.6815 1035.8627 1034.0609 1032.3297 1030.6772 1029.0802 1027.5254 1026.0093 1024.5549 1023.2068 1022.0549 1021.2151 1020.7559 1020.6996 1020.9043 1021.1217 1021.0944 1020.5718 1019.4310 1017.6342 1015.2050 1012.2133 1008.8305 1005.2798 1001.6940 998.1483 994.6777 991.3057 988.1614 985.4268 983.2094 981.5545 980.3171 979.2701 978.3862 977.7515 977.5121 977.8141 978.5406 979.4441 980.3204 980.9968 981.3727 981.3777 980.9000 979.8165 978.0792 975.6856 972.7071 969.2537 965.4674 961.4991 957.4571 953.4451 949.6735 946.3859 943.7261 941.7729 940.4578 939.6509 939.2328 939.0859 939.0741 939.0649 938.9975 938.8446 938.6070 938.3018 937.9789 937.6989 937.5054 937.4413 937.5796 938.0076 938.8322 940.1666 942.1195 944.7650 947.9913 951.5834 955.1192 958.1216 960.2055 961.0902 960.8841 959.8737 958.6016 957.6244 957.1454 957.2122 957.6534 958.2454 958.8402 959.3303 959.6906 959.9221 960.0342 960.0779 960.2853 960.9229 962.1772 964.1340 966.5327 969.0194 971.2530 972.9167 973.7845 973.7169 972.8339 971.3832 969.8574 968.7019 967.9265 967.4388 967.1708 967.0681 967.1053 967.2670 967.5493 967.9451 968.4258 968.9707 969.6031 970.3511 971.2234 972.2407 973.4777 974.9862 976.6987 978.5172 980.3267 981.9717 983.1766 983.6531 983.1494 981.5084 978.8470 975.3624 971.3350 967.1230 963.2693 960.2040 957.9247 956.2953 955.0240 953.8367 952.5892 951.2034 949.7213 948.2054 946.7182 945.3097 943.9966 942.8201 941.8995 941.3257 941.0845 941.1190 941.3060 941.5540 941.8728 942.3111 942.9732 944.0036 945.6226 948.0032 951.1827 955.0687 959.3168 963.5851 967.6153 971.2010 974.2245 976.6224 978.4229 979.6993 980.5939 981.2639 981.8785 982.5259 983.1256 983.5251 983.7911
1146.8047 1147.5521 1149.6932 1153.7646 1159.9517 1168.1771 1177.8353 1188.1904 1198.3896 1207.6991 1215.7236 1222.2504 1227.3828 1231.2396 1233.8627 1235.3176 1235.7506 1235.3243 1234.2135 1232.5966 1230.6560 1228.5498 1226.3809 1224.1941 1221.9255 1219.4515 1216.5521 1212.9753 1208.4298 1202.6420 1195.3859 1186.5576 1176.2877 1165.0171 1153.7421 1143.4862 1135.2000 1129.5787 1126.8483 1126.7626 1128.2983 1130.4017 1132.1208 1132.8489 1132.5792 1131.5042 1130.0535 1128.5236 1126.9385 1125.3412 1123.8503 1122.5095 1121.2244 1119.8362 1118.1028 1115.8171 1112.8422 1109.1409 1104.8251 1100.0735 1095.1461 1090.2074 1085.2649 1080.2632 1075.0731 1069.5842 1063.7247 1057.5479 1051.2795 1045.0254 1038.7008 1032.1438 1025.1072 1017.4776 1009.3305 1000.7009 991.5549 981.9687 972.1787 962.7377 954.5889 948.5446 945.2061 944.7396 946.7812 950.7925 956.0642 961.9750 968.0159 973.5007 977.5350 979.5206 979.2288 976.8100 972.8276 967.9926 963.1506 959.0050 956.0823 954.5742 954.3188 955.1290 956.8081 959.1334 961.8548 964.6993 967.3748 969.6455 971.3422 972.4975 973.3425 974.1570 975.2603 976.9902 979.6911 983.5133 988.4178 994.2272 1000.6376 1007.2263 1013.4853 1019.2468 1024.6493 1029.8652 1035.0725 1040.1759 1044.8502 1048.8348 1051.9401 1054.1438 1055.5649 1056.3822 1056.8064 1056.8464 1056.3558 1055.3054 1053.7623 1051.8256 1049.6178 1047.2742 1044.9354 1042.6863 1040.5670 1038.5757 1036.6827 1034.8904 1033.2202 1031.6429 1030.0942 1028.5280 1026.9141 1025.2710 1023.6562 1022.2081 1021.1117 1020.4668 1020.2977 1020.4108 1020.4767 1020.2077 1019.3578 1017.8408 1015.6769 1012.9680 1009.8676 1006.5610 1003.2391 999.9644 996.7215 993.4714 990.1831 987.0308 984.2922 982.1257 980.5992 979.5671 978.7883 978.2139 977.9006 977.9260 978.3582 979.0887 979.9225 980.6981 981.2761 981.5573 981.4619 980.9064 979.8105 978.1337 975.8615 973.0384 969.7465 966.1432 962.4089 958.6335 954.8768 951.2789 948.0122 945.2289 943.0553 941.5007 940.5156 939.9884 939.7796 939.7364 939.7120 939.6362 939.4755 939.2341 938.9334 938.6102 938.3032 938.0267 937.7957 937.6870 937.8019 938.2503 939.1475 940.6240 942.7845 945.5538 948.7559 952.0059 954.8580 956.9246 957.9110 957.9119 957.2023 956.3245 955.8332 955.9037 956.5391 957.4824 958.4238 959.1895 959.6769 959.9271 960.0126 959.9551 959.7968 959.7448 960.0458 960.9127 962.4662 964.4650 966.5665 968.4205 969.7028 970.2049 969.8199 968.7325 967.2538 965.9003 965.1082 964.7846 964.7286 964.8289 965.0140 965.2812 965.6382 966.0699 966.5530 967.0523 967.5449 968.0599 968.6300 969.2574 969.9604 970.8353 971.9672 973.3468 974.9276 976.6044 978.2083 979.4031 979.8461 979.2822 977.5704 974.8698 971.4269 967.5761 963.6958 960.2454 957.5579 955.5502 954.0466 952.8250 951.6818 950.4888 949.1664 947.7336 946.2442 944.8017 943.4921 942.3327 941.3542 940.6514 940.2888 940.2277 940.3881 940.6267 940.8400 941.0475 941.3024 941.6942 942.3719 943.6124 945.6575 948.6234 952.4523 956.7305 961.0406 965.0692 968.5804 971.4786 973.7260 975.3691 976.5155 977.3780 978.1611 979.0236 980.0167 980.9844 981.7028 982.2689
1140.2584 1141.4392 1143.9104 1148.1541 1154.3696 1162.5275 1172.1266 1182.5225 1192.8969 1202.5306 1211.0149 1218.1099 1223.8708 1228.3660 1231.5906 1233.5793 1234.4835 1234.4701 1233.7030 1232.3546 1230.6167 1228.6584 1226.5922 1224.4742 1222.2563 1219.8252 1216.9604 1213.3918 1208.7754 1202.7926 1195.1957 1185.8484 1174.8219 1162.5435 1150.0907 1138.5930 1129.1313 1122.5371 1119.1766 1118.8857 1120.6115 1123.1982 1125.4828 1126.7051 1126.8297 1126.0520 1124.8400 1123.5337 1122.2059 1120.9041 1119.6761 1118.4990 1117.2296 1115.7084 1113.7689 1111.3042 1108.3040 1104.7789 1100.7600 1096.3702 1091.8708 1087.4248 1083.0265 1078.6006 1073.9894 1069.0889 1063.8851 1058.4504 1052.9674 1047.4822 1041.8350 1035.8131 1029.1559 1021.7427 1013.6486 1004.9435 995.6760 986.0157 976.3027 967.1614 959.5638 954.2710 951.7360 951.9691 954.4515 958.5710 963.6465 969.1391 974.6788 979.6952 983.3768 985.1687 984.8394 982.4732 978.5004 973.5541 968.4705 963.9988 960.7665 959.0256 958.6277 959.3875 961.0999 963.5154 966.3392 969.2871 972.0900 974.5411 976.5012 977.9713 979.0909 980.0621 981.1465 982.6966 985.1379 988.6541 993.1937 998.5803 1004.5280 1010.6877 1016.6705 1022.3394 1027.7847 1033.1360 1038.5337 1043.8121 1048.5481 1052.4042 1055.1411 1056.8298 1057.7936 1058.3191 1058.6410 1058.7191 1058.3062 1057.3118 1055.7775 1053.7983 1051.5083 1049.0311 1046.4829 1043.9784 1041.6283 1039.4832 1037.5492 1035.8135 1034.2477 1032.7802 1031.3114 1029.7614 1028.0704 1026.2496 1024.3678 1022.6151 1021.2504 1020.3999 1020.0787 1020.0383 1019.8713 1019.2779 1018.0450 1016.1402 1013.6512 1010.7560 1007.6809 1004.5975 1001.6293 998.7482 995.8394 992.8053 989.5869 986.3998 983.6007 981.4108 979.9480 979.0736 978.5292 978.2337 978.2030 978.4595 979.0156 979.7683 980.5584 981.2517 981.7298 981.8970 981.6734 981.0203 979.9175 978.3375 976.2529 973.6659 970.6084 967.2332 963.7322 960.1733 956.5796 953.0562 949.7481 946.8280 944.4631 942.7018 941.5291 940.8445 940.5096 940.3725 940.2867 940.1757 939.9994 939.7663 939.5029 939.2247 938.9393 938.6302 938.2877 937.9977 937.8800 938.0457 938.6050 939.6798 941.3713 943.6374 946.3499 949.1813 951.7401 953.6572 954.6405 954.7653 954.2839 953.7368 953.6829 954.2995 955.5713 957.1252 958.5208 959.5306 960.0411 960.1713 960.0880 959.8575 959.5421 959.3226 959.4102 959.9999 961.2037 962.7872 964.4197 965.7683 966.5379 966.5958 965.9167 964.7450 963.4213 962.3966 962.0184 962.1118 962.4079 962.7809 963.1655 963.5953 964.1077 964.6668 965.2199 965.7172 966.1279 966.4879 966.8348 967.1609 967.4796 967.9132 968.5948 969.6146 971.0054 972.6401 974.2992 975.5705 976.0490 975.4760 973.7380 971.0837 967.8374 964.3381 960.9261 957.9366 955.5954 953.8100 952.4240 951.2652 950.1738 949.0309 947.7549 946.3466 944.8549 943.4208 942.1685 941.1352 940.3512 939.8666 939.7010 939.7878 940.0276 940.2741 940.4260 940.5110 940.5811 940.7004 941.0092 941.8242 943.4514 946.1110 949.8038 954.0574 958.3770 962.3664 965.7363 968.4033 970.3635 971.7262 972.6746 973.5165 974.5017 975.7244 977.1545 978.5473 979.6100 980.5897
1132.9888 1134.7571 1137.6716 1142.1476 1148.3613 1156.3085 1165.6185 1175.7783 1186.0592 1195.8060 1204.6257 1212.2642 1218.7062 1223.9436 1227.9019 1230.5681 1232.0973 1232.6577 1232.3953 1231.4720 1230.0940 1228.4445 1226.6440 1224.7614 1222.7703 1220.5778 1217.9749 1214.6846 1210.3199 1204.5214 1197.0123 1187.6169 1176.3423 1163.5587 1150.3077 1137.7175 1126.9321 1118.8944 1114.1584 1112.7462 1113.7689 1116.1326 1118.5537 1120.1411 1120.7437 1120.4598 1119.6893 1118.7345 1117.6769 1116.5583 1115.3905 1114.1212 1112.5984 1110.6980 1108.3593 1105.5964 1102.5349 1099.2358 1095.6456 1091.8103 1087.9434 1084.1672 1080.4434 1076.6682 1072.6638 1068.3467 1063.7814 1059.0671 1054.3339 1049.5654 1044.5369 1038.9979 1032.6899 1025.4917 1017.4714 1008.7501 999.5034 990.0219 980.7468 972.3172 965.6073 961.2382 959.4802 960.2257 962.9235 966.9627 971.6988 976.6652 981.6052 986.0579 989.3143 990.8696 990.4815 988.1747 984.2689 979.3097 974.0778 969.3384 965.8124 963.8298 963.2985 964.0483 965.8459 968.3937 971.3329 974.3597 977.2330 979.7937 981.9655 983.7404 985.1768 986.3951 987.5804 989.0720 991.3411 994.5952 998.7844 1003.7512 1009.2460 1014.9878 1020.6786 1026.2009 1031.5985 1036.9484 1042.3337 1047.5333 1052.0715 1055.5845 1057.8335 1058.9856 1059.5319 1059.8313 1060.1072 1060.2656 1059.9755 1059.0975 1057.6527 1055.7241 1053.4379 1050.9043 1048.2236 1045.5331 1042.9934 1040.6998 1038.6951 1036.9729 1035.4880 1034.1354 1032.7703 1031.2695 1029.5341 1027.5680 1025.4572 1023.4279 1021.7854 1020.6695 1020.0873 1019.7687 1019.2797 1018.3270 1016.7253 1014.4791 1011.7200 1008.6951 1005.7073 1002.9221 1000.4040 998.0305 995.5765 992.8804 989.8496 986.7039 983.8289 981.5131 979.9592 979.0780 978.6360 978.5218 978.6929 979.1280 979.8068 980.6229 981.4272 982.0911 982.4978 982.5480 982.1635 981.3712 980.2399 978.7644 976.9011 974.5819 971.7527 968.5497 965.1790 961.7134 958.1753 954.6613 951.3074 948.2941 945.8040 943.8954 942.5619 941.7149 941.2297 940.9671 940.7916 940.6268 940.4289 940.2075 939.9886 939.7678 939.5257 939.2213 938.8248 938.4238 938.1464 938.1049 938.4041 939.1395 940.3875 942.1335 944.2980 946.6173 948.7636 950.4061 951.2743 951.4236 951.0784 950.7810 951.1048 952.2558 954.2224 956.4890 958.4453 959.7872 960.3738 960.4000 960.1331 959.7081 959.2377 958.9088 958.9156 959.3893 960.3749 961.6166 962.7875 963.6151 963.8831 963.5548 962.6907 961.5586 960.4838 959.8070 959.7606 960.1293 960.6292 961.1438 961.6273 962.1475 962.7662 963.4191 964.0172 964.4874 964.7864 964.9635 965.0688 965.0801 965.0001 964.9718 965.1743 965.8059 966.9843 968.5458 970.2134 971.5298 972.0588 971.5474 969.9065 967.4448 964.5328 961.4928 958.6140 956.1131 954.1235 952.5719 951.3406 950.2925 949.2940 948.2308 947.0165 945.6323 944.1179 942.6406 941.3604 940.3602 939.6935 939.3687 939.3590 939.5663 939.8710 940.1284 940.2433 940.2513 940.2042 940.1461 940.1929 940.6328 941.7830 943.9680 947.2835 951.3004 955.5173 959.4364 962.6774 965.1188 966.7607 967.7911 968.4882 969.2684 970.4287 971.9811 973.8038 975.5745 976.9502 978.3346
1125.1757 1127.6400 1131.0974 1135.8966 1142.1569 1149.8657 1158.7672 1168.4819 1178.4188 1188.0365 1196.9976 1205.0604 1212.1389 1218.1398 1222.8971 1226.3320 1228.5918 1229.8379 1230.1915 1229.8030 1228.8999 1227.6848 1226.2822 1224.7710 1223.1530 1221.3646 1219.2250 1216.4677 1212.6805 1207.4706 1200.5211 1191.6090 1180.6820 1168.0221 1154.5271 1141.2179 1129.2125 1119.4980 1112.7885 1109.3555 1108.7036 1110.0116 1112.0197 1113.7537 1114.8365 1115.1572 1114.9625 1114.4498 1113.6681 1112.6429 1111.3844 1109.8463 1107.8916 1105.4556 1102.6071 1099.4954 1096.3771 1093.3634 1090.3224 1087.2074 1084.1348 1081.1508 1078.1729 1075.0698 1071.6565 1067.8765 1063.8684 1059.7622 1055.6497 1051.4657 1046.9271 1041.7581 1035.7181 1028.6963 1020.7582 1012.0923 1003.0370 994.0160 985.5530 978.2404 972.7438 969.4666 968.4669 969.5491 972.2276 975.9608 980.1672 984.4610 988.6885 992.4981 995.2934 996.6074 996.1488 993.8840 990.0698 985.1818 979.9245 975.0428 971.2998 969.0967 968.4384 969.1959 971.1152 973.8384 976.9111 979.9897 982.8542 985.4072 987.6686 989.6553 991.3781 992.8815 994.2537 995.7800 997.9209 1000.8983 1004.6996 1009.2183 1014.2663 1019.6111 1024.9899 1030.2850 1035.5103 1040.6879 1045.8303 1050.6893 1054.8024 1057.8444 1059.6366 1060.4115 1060.7257 1060.9448 1061.2517 1061.5133 1061.3629 1060.6403 1059.3562 1057.5736 1055.3912 1052.9048 1050.2102 1047.4479 1044.7878 1042.3507 1040.2172 1038.4220 1036.9590 1035.7056 1034.4597 1033.0398 1031.2925 1029.2156 1026.9204 1024.6489 1022.7146 1021.2625 1020.3040 1019.5931 1018.7303 1017.4384 1015.5368 1013.0383 1010.0887 1006.9885 1004.1122 1001.6396 999.6102 997.8253 995.9568 993.7650 991.0950 988.1185 985.1898 982.6531 980.8154 979.6962 979.1599 979.0871 979.3721 979.9504 980.7708 981.7097 982.6083 983.3241 983.7249 983.6990 983.1665 982.2237 981.0353 979.6260 977.9406 975.8278 973.1277 969.9580 966.5483 963.0137 959.4222 955.8788 952.5098 949.4780 946.9459 944.9625 943.5190 942.5381 941.9122 941.5208 941.2452 941.0161 940.7909 940.5745 940.3847 940.2047 940.0009 939.7189 939.3161 938.8688 938.4963 938.3092 938.4086 938.8591 939.7055 940.9542 942.5678 944.3410 946.0084 947.2914 947.9580 948.0463 947.7505 947.6136 948.2259 949.8468 952.4940 955.5049 958.0856 959.8338 960.5602 960.5226 960.0820 959.4556 958.8281 958.4299 958.4672 958.9773 959.8955 960.9169 961.7062 962.0856 961.9554 961.3686 960.4489 959.4447 958.6262 958.2206 958.3586 958.8320 959.3883 959.9339 960.4431 961.0018 961.6793 962.3837 962.9915 963.4021 963.5565 963.5274 963.3868 963.0996 962.6542 962.2012 961.9489 962.1819 963.0866 964.4686 966.0139 967.2759 967.8371 967.4600 966.0644 963.9513 961.4781 958.9473 956.6115 954.6044 952.9951 951.7278 950.7150 949.8457 949.0051 948.0812 946.9805 945.6599 944.1392 942.5872 941.1863 940.0868 939.3922 939.0959 939.1456 939.4166 939.7699 940.0573 940.1830 940.1830 940.1082 939.9967 939.9313 940.1040 940.7800 942.3563 945.0396 948.5571 952.4964 956.2805 959.4297 961.7285 963.1302 963.8785 964.3309 965.0051 966.2466 967.9999 970.0733 972.1001 973.7156 975.0325
1117.1254 1120.3109 1124.3472 1129.5151 1135.8634 1143.3527 1151.8142 1160.9889 1170.4415 1179.7648 1188.6873 1196.9941 1204.5566 1211.2209 1216.7428 1220.9734 1224.0160 1225.9962 1227.0100 1227.2006 1226.8284 1226.1206 1225.1971 1224.1398 1222.9789 1221.6887 1220.1377 1218.0939 1215.1451 1210.8752 1204.9049 1196.9480 1186.8975 1174.9382 1161.7872 1148.3033 1135.4980 1124.2953 1115.4175 1109.3560 1106.2092 1105.6455 1106.6272 1108.1832 1109.5984 1110.4545 1110.8082 1110.7242 1110.1982 1109.2307 1107.8409 1105.9961 1103.5765 1100.5845 1097.2358 1093.8182 1090.6989 1088.0270 1085.5999 1083.2743 1081.0472 1078.8757 1076.6390 1074.1876 1071.3429 1068.0699 1064.5477 1060.9219 1057.2618 1053.4689 1049.2148 1044.2140 1038.2661 1031.3031 1023.4329 1014.9304 1006.2784 998.0026 990.6637 984.7581 980.6888 978.6113 978.3726 979.7036 982.2143 985.4628 988.9600 992.4224 995.8111 998.8892 1001.1707 1002.2191 1001.6815 999.4665 995.7828 991.0507 985.9105 981.0634 977.2526 974.9141 974.1438 974.8761 976.8854 979.7753 982.9859 986.1089 988.9073 991.3264 993.4860 995.4671 997.3040 999.0045 1000.5630 1002.1830 1004.2594 1007.0024 1010.4387 1014.5189 1019.1267 1024.0714 1029.1041 1034.1058 1039.0737 1043.9830 1048.7756 1053.1996 1056.8466 1059.4706 1060.9862 1061.6376 1061.9260 1062.1677 1062.5049 1062.8041 1062.7272 1062.1241 1060.9989 1059.3899 1057.3597 1054.9828 1052.3444 1049.5757 1046.8395 1044.2705 1041.9811 1040.0635 1038.5815 1037.4102 1036.2920 1034.9757 1033.2334 1031.0529 1028.5769 1026.0581 1023.8074 1021.9845 1020.6285 1019.5335 1018.3453 1016.7946 1014.6871 1012.0425 1009.0268 1005.9622 1003.2451 1001.0669 999.4693 998.2253 996.9569 995.3452 993.1406 990.4294 987.4957 984.7032 982.4352 980.8621 980.0249 979.8500 980.2033 980.9556 981.9778 983.1139 984.1955 985.0632 985.5660 985.5826 985.0316 984.0323 982.7834 981.3354 979.6478 977.5278 974.7535 971.4303 967.8046 964.0520 960.3128 956.7076 953.3496 950.3613 947.8569 945.8641 944.3655 943.2932 942.5557 942.0516 941.6808 941.3838 941.1224 940.8935 940.7030 940.5290 940.3355 940.0681 939.6819 939.2348 938.8234 938.5474 938.4988 938.7189 939.2306 940.0538 941.1805 942.4533 943.6613 944.5834 945.0343 945.0364 944.7502 944.6943 945.4546 947.3672 950.5184 954.1451 957.3053 959.4786 960.3929 960.3502 959.7932 959.0204 958.2908 957.8755 957.9917 958.5966 959.5300 960.4354 960.9617 961.0157 960.6030 959.8518 958.9334 958.0594 957.4355 957.1997 957.4135 957.9029 958.4675 959.0314 959.5745 960.1713 960.8764 961.5832 962.1517 962.4573 962.4276 962.1635 961.7671 961.2052 960.4603 959.6726 959.0508 958.9193 959.5004 960.5973 961.9015 963.0246 963.6040 963.4108 962.3527 960.6802 958.7014 956.6938 954.8829 953.3550 952.1441 951.2062 950.4742 949.8564 949.2528 948.5538 947.6591 946.4998 945.0634 943.4775 941.9117 940.5833 939.6631 939.1783 939.0964 939.2927 939.6218 939.9241 940.0874 940.1212 940.0580 939.9410 939.8331 939.8411 940.1635 941.1985 943.2084 946.0792 949.5289 953.0170 956.0468 958.2977 959.6375 960.2910 960.6287 961.2299 962.4763 964.2841 966.4386 968.5765 970.3419 971.7983
1109.1074 1112.9663 1117.5558 1123.0894 1129.5486 1136.8624 1144.9215 1153.5599 1162.4854 1171.4153 1180.1396 1188.4796 1196.3064 1203.4469 1209.6071 1214.5760 1218.3783 1221.0751 1222.7367 1223.5050 1223.6788 1223.5095 1223.0972 1222.5127 1221.8069 1220.9948 1220.0192 1218.7144 1216.7074 1213.5778 1208.8612 1202.1906 1193.4058 1182.5956 1170.2906 1157.1656 1144.0724 1131.7854 1120.8947 1112.0449 1106.0154 1103.0883 1102.6118 1103.7061 1105.2635 1106.5127 1107.3131 1107.5955 1107.3024 1106.4078 1104.9359 1102.8569 1100.0480 1096.5720 1092.8115 1089.1913 1086.1526 1083.8612 1082.0476 1080.4801 1079.0437 1077.6182 1076.0599 1074.2157 1071.9232 1069.1527 1066.0691 1062.8040 1059.4156 1055.7897 1051.5787 1046.5122 1040.4541 1033.4189 1025.6166 1017.4216 1009.4094 1002.1467 996.1658 991.8259 989.2590 988.3809 988.8511 990.3416 992.5590 995.1731 997.8130 1000.3187 1002.7802 1005.0743 1006.8093 1007.5724 1006.9540 1004.8071 1001.2908 996.7814 991.8802 987.2343 983.5178 981.1608 980.3218 981.0052 983.0574 986.0720 989.3956 992.5444 995.2311 997.4150 999.2939 1001.0395 1002.7821 1004.5386 1006.2258 1007.9529 1010.0104 1012.5687 1015.6769 1019.3334 1023.4887 1027.9972 1032.6338 1037.2941 1041.9790 1046.6245 1051.0991 1055.1498 1058.4324 1060.7916 1062.2455 1063.0044 1063.4257 1063.7427 1064.0710 1064.3138 1064.2152 1063.6588 1062.6418 1061.1805 1059.3042 1057.0580 1054.5027 1051.7539 1048.9672 1046.2858 1043.8447 1041.7888 1040.2513 1039.1200 1038.1064 1036.8916 1035.1599 1032.8792 1030.2180 1027.4431 1024.8732 1022.6996 1021.0078 1019.6225 1018.2079 1016.4903 1014.2595 1011.5585 1008.5964 1005.6832 1003.1731 1001.2493 999.9668 999.1192 998.3461 997.2772 995.5710 993.2128 990.3880 987.4246 984.7211 982.6062 981.3437 980.9589 981.3400 982.2842 983.5473 984.9321 986.2656 987.3732 988.0848 988.2767 987.8676 986.9357 985.6265 984.0020 982.0630 979.6456 976.5493 972.8831 968.8967 964.8234 960.8780 957.1953 953.8712 950.9734 948.5508 946.6023 945.1000 943.9819 943.1697 942.5782 942.1243 941.7587 941.4490 941.1843 940.9592 940.7520 940.5328 940.2584 939.8931 939.4744 939.0687 938.7540 938.6044 938.6498 938.9065 939.4009 940.1406 941.0034 941.8234 942.4357 942.7036 942.6372 942.3599 942.3314 943.0962 945.0725 948.4438 952.4202 955.9866 958.5098 959.6179 959.6334 959.0570 958.2510 957.5295 957.1717 957.3824 958.0764 959.0464 959.9046 960.2879 960.1536 959.5721 958.7285 957.8300 957.0519 956.5450 956.3936 956.6256 957.1111 957.7010 958.3261 958.9539 959.6180 960.3350 960.9963 961.4645 961.6031 961.3340 960.7894 960.1068 959.2766 958.2925 957.2708 956.3907 955.9575 956.1888 956.9241 957.9108 958.8501 959.4510 959.4780 958.8057 957.6185 956.1613 954.6786 953.3708 952.3053 951.5046 950.9329 950.5358 950.2371 949.9501 949.5691 948.9890 948.1142 946.8879 945.3549 943.6323 941.9846 940.6514 939.7428 939.2983 939.2303 939.4115 939.6667 939.8536 939.9282 939.8846 939.7708 939.6463 939.5792 939.7153 940.3796 941.8095 943.9844 946.7502 949.7345 952.5399 954.7799 956.2315 957.0218 957.4521 958.0950 959.3369 961.1057 963.2116 965.3412 967.1727 968.6843
1101.3250 1105.7555 1110.8202 1116.6710 1123.2383 1130.4258 1138.1611 1146.3390 1154.7620 1163.2383 1171.6249 1179.7981 1187.6622 1195.0560 1201.6533 1207.1938 1211.6279 1214.9541 1217.2140 1218.5415 1219.2634 1219.6401 1219.7273 1219.5610 1219.1918 1218.6694 1218.0371 1217.2350 1215.9908 1213.9202 1210.4652 1205.1674 1197.8115 1188.3793 1177.1813 1164.6840 1151.5782 1138.5120 1126.0042 1114.8453 1106.3492 1101.3099 1099.4657 1100.0674 1101.6986 1103.2887 1104.4968 1105.1206 1105.0703 1104.3069 1102.8567 1100.6765 1097.6010 1093.7397 1089.6703 1085.9574 1083.0707 1081.1605 1079.8883 1078.9496 1078.1592 1077.3527 1076.3818 1075.1002 1073.3628 1071.1208 1068.4650 1065.4755 1062.1987 1058.5275 1054.1439 1048.8312 1042.5382 1035.3870 1027.7208 1020.0099 1012.8714 1006.8481 1002.3654 999.6074 998.4520 998.6012 999.5640 1000.9880 1002.7080 1004.5308 1006.2201 1007.7414 1009.2976 1010.8570 1012.0916 1012.5968 1011.9083 1009.8310 1006.4886 1002.2239 997.6071 993.2320 989.6981 987.4210 986.6105 987.3191 989.4315 992.5287 995.8920 998.9910 1001.5145 1003.4303 1004.9779 1006.4102 1007.9720 1009.7036 1011.4545 1013.2418 1015.2464 1017.5934 1020.3474 1023.5436 1027.1868 1031.1824 1035.3541 1039.6449 1044.0981 1048.6089 1052.9368 1056.7953 1059.8754 1062.0968 1063.5770 1064.4963 1065.0779 1065.4774 1065.7860 1065.9448 1065.7831 1065.2223 1064.2582 1062.8948 1061.1411 1059.0148 1056.5446 1053.8279 1051.0123 1048.2471 1045.6824 1043.4902 1041.8386 1040.6459 1039.6475 1038.4855 1036.7665 1034.4222 1031.6162 1028.6287 1025.8055 1023.3755 1021.4644 1019.9009 1018.3311 1016.4795 1014.1481 1011.4203 1008.5552 1005.8343 1003.5385 1001.8199 1000.7307 1000.0964 999.6064 998.9145 997.6793 995.7956 993.3115 990.4589 987.5805 985.1128 983.5068 982.8922 983.2081 984.2311 985.6616 987.2712 988.8672 990.2469 991.2104 991.6295 991.4224 990.5950 989.1960 987.2758 984.8713 981.9067 978.2846 974.1437 969.7340 965.3251 961.1788 957.4354 954.1718 951.3987 949.0956 947.2305 945.7634 944.6349 943.7771 943.1180 942.5889 942.1508 941.7786 941.4567 941.1721 940.9067 940.6387 940.3413 939.9925 939.6129 939.2415 938.9286 938.7245 938.6525 938.7283 938.9800 939.4208 939.9563 940.4583 940.8151 940.9384 940.8326 940.5875 940.5787 941.2735 943.1352 946.4241 950.3925 954.0437 956.6983 957.9287 958.0515 957.5791 956.8980 956.3391 956.1467 956.4827 957.2493 958.2368 959.0628 959.3748 959.1558 958.5070 957.6484 956.8099 956.1331 955.7239 955.6371 955.8875 956.3843 957.0214 957.7355 958.4802 959.2342 959.9602 960.5403 960.8392 960.7266 960.1373 959.2354 958.1968 957.0555 955.8353 954.6306 953.5788 952.9116 952.8013 953.1590 953.8274 954.6021 955.2595 955.5449 955.2901 954.6173 953.7111 952.7738 951.9750 951.3765 951.0025 950.8257 950.8032 950.8737 950.9639 950.9756 950.7997 950.3086 949.3929 948.0020 946.1818 944.2104 942.3755 940.8898 939.8934 939.3716 939.2448 939.3317 939.4648 939.5493 939.5360 939.4593 939.3650 939.2965 939.3525 939.7604 940.6976 942.1830 944.1631 946.4698 948.8632 950.9797 952.5638 953.6289 954.3611 955.2382 956.5912 958.3693 960.4257 962.5159 964.3671 965.8730
1093.9923 1098.8546 1104.2809 1110.3706 1117.0229 1124.1273 1131.6331 1139.4641 1147.4580 1155.4683 1163.4202 1171.2568 1178.9382 1186.3384 1193.1213 1199.0011 1203.8771 1207.6986 1210.4701 1212.3058 1213.5488 1214.4526 1215.0037 1215.1743 1214.9833 1214.4989 1213.8829 1213.2156 1212.3816 1211.0764 1208.6583 1204.5817 1198.5748 1190.5022 1180.4329 1168.6215 1155.6343 1142.0715 1128.5321 1115.9552 1105.9053 1099.4545 1096.6462 1096.8812 1098.6093 1100.5786 1102.2375 1103.2430 1103.4907 1102.9440 1101.6383 1099.5071 1096.3074 1092.1763 1087.8972 1084.1707 1081.4629 1079.8873 1079.0364 1078.5532 1078.2318 1077.9001 1077.4182 1076.6511 1075.4680 1073.7805 1071.5630 1068.8137 1065.5563 1061.7074 1057.0320 1051.4050 1044.8743 1037.6760 1030.2881 1023.2549 1017.1835 1012.5336 1009.5584 1008.2440 1008.2464 1009.0974 1010.2066 1011.2460 1012.2227 1013.1065 1013.8013 1014.3826 1015.1291 1016.0627 1016.8848 1017.1854 1016.4555 1014.4645 1011.3120 1007.3103 1002.9893 998.8951 995.5739 993.4388 992.7513 993.5839 995.8032 998.9619 1002.3047 1005.2897 1007.6198 1009.2758 1010.5092 1011.6338 1012.9998 1014.6692 1016.4291 1018.2107 1020.0936 1022.1611 1024.4935 1027.1566 1030.1985 1033.5851 1037.2159 1041.1149 1045.4038 1049.9354 1054.3252 1058.2104 1061.2701 1063.4664 1064.9971 1066.0387 1066.7418 1067.2120 1067.5132 1067.6083 1067.3849 1066.7932 1065.8337 1064.5081 1062.8175 1060.7649 1058.3585 1055.6802 1052.8655 1050.0587 1047.4095 1045.0830 1043.2394 1041.8458 1040.7205 1039.5157 1037.7972 1035.4485 1032.5836 1029.4790 1026.5073 1023.9276 1021.8942 1020.2265 1018.5403 1016.5722 1014.1625 1011.4350 1008.6835 1006.1550 1004.0569 1002.4951 1001.4976 1000.9141 1000.4905 999.9783 999.1398 997.8113 995.8907 993.4722 990.7834 988.2866 986.5342 985.7369 985.9020 986.8589 988.3464 990.1220 991.9517 993.5862 994.7817 995.3997 995.3564 994.5908 993.0596 990.7783 987.7897 984.1363 979.8770 975.2040 970.3745 965.6689 961.3599 957.5835 954.4008 951.7684 949.6016 947.8383 946.4260 945.3063 944.4183 943.7009 943.0973 942.5786 942.1277 941.7291 941.3676 941.0290 940.6999 940.3686 940.0272 939.6854 939.3602 939.0747 938.8530 938.7118 938.6669 938.7444 938.9589 939.2390 939.4897 939.6459 939.6621 939.5452 939.3604 939.3894 939.9988 941.6315 944.5681 948.1569 951.5101 954.0043 955.2397 955.5007 955.2531 954.8548 954.6046 954.6774 955.1703 955.9913 956.9596 957.7370 958.0131 957.7838 957.1573 956.3653 955.6425 955.0998 954.8081 954.8055 955.1031 955.6374 956.3325 957.1363 957.9964 958.8389 959.5703 960.0444 960.1140 959.6735 958.6914 957.3682 955.9203 954.4359 952.9800 951.6335 950.4894 949.6681 949.2669 949.2878 949.6888 950.3497 951.1003 951.6630 951.8285 951.6696 951.3207 950.9362 950.6496 950.5200 950.5770 950.8041 951.1714 951.6328 952.1298 952.5754 952.8589 952.8172 952.2872 951.1301 949.3170 947.1016 944.7850 942.6690 940.9965 939.8575 939.2531 939.0212 938.9907 939.0298 939.0487 939.0436 939.0250 939.0067 939.0421 939.2739 939.8178 940.6984 941.9212 943.4759 945.2785 947.0872 948.7010 950.0541 951.2125 952.4841 954.0844 955.9731 958.0435 960.1174 961.9734 963.5809
1087.3458 1092.4825 1098.1434 1104.3845 1111.0869 1118.1333 1125.4846 1133.0742 1140.7368 1148.3333 1155.8269 1163.2106 1170.5088 1177.6559 1184.3584 1190.3455 1195.4742 1199.6428 1202.8018 1205.0366 1206.7186 1208.0990 1209.0808 1209.5485 1209.4487 1208.8409 1208.0061 1207.1709 1206.3893 1205.4561 1203.6819 1200.4596 1195.4641 1188.4602 1179.3243 1168.1519 1155.4348 1141.7782 1127.9186 1114.8840 1104.2125 1097.0385 1093.6514 1093.6438 1095.5233 1097.9801 1100.2257 1101.7448 1102.4031 1102.1653 1101.0979 1099.1260 1095.9303 1091.6569 1087.2462 1083.5082 1080.9193 1079.5736 1079.0111 1078.8422 1078.8605 1078.8986 1078.8252 1078.5146 1077.8467 1076.6948 1074.9252 1072.4500 1069.2487 1065.2604 1060.3627 1054.5406 1047.9399 1040.8995 1034.0061 1027.8381 1022.9355 1019.6334 1017.9953 1017.8171 1018.5725 1019.6794 1020.5219 1020.8477 1020.8571 1020.6911 1020.3867 1020.1036 1020.1481 1020.5579 1021.0392 1021.1800 1020.4626 1018.6339 1015.7557 1012.0909 1008.1087 1004.3078 1001.2034 999.2175 998.6628 999.6313 1001.9740 1005.2195 1008.5822 1011.5002 1013.6691 1015.0728 1015.9789 1016.7692 1017.9085 1019.4863 1021.2299 1022.9807 1024.7064 1026.4430 1028.2859 1030.3342 1032.6860 1035.3793 1038.4044 1041.8757 1045.9982 1050.5922 1055.1436 1059.2006 1062.3943 1064.6921 1066.3385 1067.5134 1068.3344 1068.8804 1069.1965 1069.2588 1068.9924 1068.3658 1067.3827 1066.0399 1064.3306 1062.2672 1059.8810 1057.2501 1054.4874 1051.7018 1049.0007 1046.5170 1044.3923 1042.6544 1041.2329 1039.8459 1038.0859 1035.7938 1032.9967 1029.9152 1026.8900 1024.1917 1022.0130 1020.2060 1018.4141 1016.3978 1014.0184 1011.4014 1008.8292 1006.5095 1004.5951 1003.1554 1002.1974 1001.5983 1001.1631 1000.7397 1000.1957 999.3536 998.0257 996.1801 993.9061 991.6221 989.8929 988.9931 989.0201 989.8864 991.4010 993.3129 995.3381 997.1749 998.5288 999.2477 999.2491 998.4459 996.7545 994.1430 990.6203 986.3262 981.4675 976.2970 971.0892 966.1273 961.6791 957.8771 954.7730 952.2738 950.2321 948.5598 947.1946 946.0788 945.1567 944.3752 943.6871 943.0735 942.5264 942.0330 941.5795 941.1565 940.7579 940.3854 940.0432 939.7315 939.4490 939.1945 938.9689 938.7831 938.6537 938.6036 938.6470 938.7344 938.8007 938.8130 938.7549 938.6406 938.5229 938.6032 939.1481 940.5108 942.9207 945.8503 948.5868 950.6613 951.7872 952.1952 952.2510 952.2294 952.3523 952.7222 953.3798 954.2430 955.1669 955.8820 956.1434 955.9597 955.4353 954.7892 954.2383 953.8652 953.7134 953.8124 954.1734 954.7510 955.4891 956.3464 957.2710 958.1571 958.8709 959.2218 959.0345 958.2383 956.8505 955.1180 953.3035 951.5421 949.9315 948.5366 947.4029 946.5336 945.9434 945.7161 945.9153 946.4950 947.3336 948.1414 948.6810 948.9823 949.1347 949.2502 949.4302 949.7310 950.1866 950.7908 951.5251 952.3577 953.2448 954.1143 954.8594 955.2910 955.2022 954.3774 952.7131 950.4093 947.7427 945.0584 942.6750 940.8126 939.5892 938.9037 938.6121 938.5468 938.5709 938.6307 938.6930 938.7460 938.8074 938.9563 939.2590 939.7317 940.3969 941.3073 942.4801 943.8456 945.3218 946.8250 948.3370 949.9779 951.8281 953.8477 955.9592 958.0378 959.9042 961.4993
1081.5597 1086.7965 1092.5531 1098.8456 1105.5432 1112.5249 1119.7563 1127.1709 1134.5873 1141.8512 1148.9204 1155.8030 1162.5862 1169.2795 1175.6798 1181.5687 1186.7667 1191.1178 1194.5090 1196.9956 1198.9952 1200.7725 1202.1478 1202.9081 1202.8965 1202.1311 1200.9844 1199.8013 1198.7753 1197.7976 1196.1838 1193.3113 1188.8210 1182.4215 1173.8934 1163.2578 1150.9840 1137.7030 1124.2582 1111.6677 1101.2279 1093.9680 1090.3682 1090.2438 1092.3268 1095.3618 1098.3171 1100.4795 1101.6470 1101.7710 1100.9739 1099.2059 1096.1106 1091.8331 1087.3821 1083.6256 1081.0735 1079.8324 1079.4269 1079.4569 1079.7179 1080.0449 1080.3073 1080.3823 1080.1558 1079.4781 1078.1499 1076.0176 1073.0000 1069.0463 1064.1421 1058.3745 1051.9702 1045.3468 1039.1642 1033.9960 1030.2710 1028.1793 1027.6044 1028.1785 1029.2373 1030.1460 1030.3444 1029.6986 1028.5974 1027.3414 1026.0862 1025.0457 1024.5063 1024.4865 1024.6798 1024.6852 1024.0206 1022.4274 1019.9113 1016.6630 1013.0649 1009.5638 1006.6624 1004.8011 1004.3400 1005.4031 1007.8543 1011.2151 1014.6715 1017.6182 1019.6938 1020.8698 1021.4477 1021.8889 1022.7771 1024.2347 1025.9355 1027.6318 1029.1754 1030.5514 1031.8677 1033.2612 1034.8905 1036.8750 1039.3037 1042.3619 1046.2970 1050.9049 1055.5905 1059.8369 1063.2273 1065.7096 1067.5321 1068.8683 1069.8197 1070.4540 1070.8094 1070.8729 1070.5928 1069.9479 1068.9402 1067.5564 1065.7754 1063.6395 1061.2391 1058.6615 1055.9880 1053.2672 1050.5272 1047.8563 1045.3832 1043.1975 1041.3438 1039.6483 1037.7979 1035.6079 1032.9983 1030.0762 1027.0741 1024.2501 1021.8511 1019.8199 1017.9070 1015.9078 1013.6684 1011.2715 1008.9399 1006.8387 1005.0893 1003.7436 1002.8031 1002.1784 1001.7312 1001.3645 1000.9982 1000.4806 999.6275 998.3286 996.5536 994.6346 993.0796 992.2062 992.2069 993.0770 994.6911 996.7753 998.9783 1000.9408 1002.3221 1002.9714 1002.8318 1001.8475 999.9602 997.0934 993.1926 988.4447 983.1498 977.6068 972.1119 966.9487 962.3781 958.5364 955.4789 953.0723 951.1150 949.4970 948.1495 947.0145 946.0392 945.1763 944.3857 943.6581 942.9955 942.3903 941.8318 941.3163 940.8442 940.4271 940.0774 939.7849 939.5308 939.2952 939.0619 938.8391 938.6443 938.4982 938.4145 938.3641 938.3076 938.2285 938.1233 938.0157 937.9563 938.0910 938.6033 939.7104 941.5355 943.6754 945.6161 947.1039 948.0237 948.5435 948.8999 949.2531 949.7248 950.3619 951.1710 952.0714 952.9421 953.5884 953.8416 953.7303 953.3572 952.9111 952.5731 952.3967 952.4031 952.6149 953.0439 953.6551 954.4043 955.2574 956.1657 957.0153 957.6553 957.8542 957.4083 956.2843 954.5508 952.5016 950.4418 948.5387 946.9078 945.5914 944.5880 943.8007 943.1697 942.8237 942.8956 943.4033 944.2773 945.2443 946.0635 946.7245 947.2732 947.7891 948.3500 949.0083 949.7993 950.7229 951.7687 952.9153 954.1305 955.3564 956.4963 957.3585 957.7180 957.3048 955.9484 953.7661 950.9666 947.8745 944.8397 942.2280 940.3044 939.0728 938.4477 938.2224 938.2068 938.2960 938.4158 938.5345 938.6465 938.7903 938.9996 939.2820 939.6489 940.1288 940.7715 941.6686 942.8718 944.3348 946.0080 947.8611 949.8602 951.9576 954.0906 956.1679 958.0379 959.7680
1076.7159 1081.8627 1087.5632 1093.7887 1100.3958 1107.2573 1114.3370 1121.5662 1128.7601 1135.7517 1142.4611 1148.8817 1155.1511 1161.3455 1167.3446 1172.9858 1178.0748 1182.4240 1185.8724 1188.4554 1190.6382 1192.7063 1194.4214 1195.4896 1195.6490 1194.8512 1193.4899 1191.9575 1190.5249 1189.1581 1187.2345 1184.1770 1179.6438 1173.3545 1165.0961 1154.8988 1143.2468 1130.7874 1118.3795 1106.9341 1097.4141 1090.6505 1087.2183 1087.1271 1089.4230 1092.9924 1096.6211 1099.4198 1101.0806 1101.5178 1100.9224 1099.3077 1096.3561 1092.2229 1087.8842 1084.1907 1081.6643 1080.4365 1080.0720 1080.1967 1080.6079 1081.1392 1081.6548 1082.0288 1082.1440 1081.8448 1080.9185 1079.1826 1076.5070 1072.8363 1068.2183 1062.7981 1056.8496 1050.8402 1045.4834 1041.3347 1038.7081 1037.6501 1037.8727 1038.8687 1039.8820 1040.2816 1039.6292 1037.9308 1035.7290 1033.4567 1031.3713 1029.7167 1028.7242 1028.3667 1028.3102 1028.1710 1027.5333 1026.1548 1023.9979 1021.1758 1017.9618 1014.7434 1012.0229 1010.2627 1009.8654 1010.9853 1013.5027 1016.9470 1020.5027 1023.5233 1025.5685 1026.5865 1026.9150 1027.0764 1027.7361 1029.0397 1030.6260 1032.1876 1033.4973 1034.5055 1035.3287 1036.1365 1037.1404 1038.5439 1040.5426 1043.3408 1047.1281 1051.6589 1056.3160 1060.5828 1064.0603 1066.6838 1068.6635 1070.1470 1071.2216 1071.9468 1072.3585 1072.4519 1072.1918 1071.5634 1070.5669 1069.1815 1067.3755 1065.2101 1062.8145 1060.2820 1057.6732 1054.9878 1052.1874 1049.3193 1046.4956 1043.8567 1041.5470 1039.5093 1037.5469 1035.4664 1033.0912 1030.3961 1027.4686 1024.5359 1021.8934 1019.5925 1017.5220 1015.5181 1013.4041 1011.2107 1009.0941 1007.1774 1005.5569 1004.2732 1003.3276 1002.6605 1002.1789 1001.8157 1001.5127 1001.1552 1000.5972 999.7072 998.3977 996.9197 995.6972 995.0511 995.2269 996.2942 998.1979 1000.5984 1003.0156 1005.0182 1006.2341 1006.5663 1006.0532 1004.7166 1002.5574 999.4769 995.3665 990.4095 984.9249 979.2207 973.5963 968.3255 963.6574 959.7443 956.6637 954.2668 952.3214 950.7016 949.3291 948.1422 947.0873 946.1199 945.2042 944.3408 943.5424 942.8084 942.1335 941.5203 940.9756 940.5156 940.1541 939.8690 939.6254 939.3904 939.1385 938.8788 938.6323 938.4177 938.2475 938.1075 937.9766 937.8456 937.7156 937.6171 937.6017 937.7782 938.2681 939.1639 940.4836 941.9167 943.1114 944.0102 944.6610 945.1843 945.7089 946.3031 947.0099 947.8387 948.7715 949.7123 950.5400 951.1208 951.3538 951.2979 951.0660 950.8181 950.6977 950.7264 950.8987 951.2283 951.7233 952.3531 953.0792 953.8707 954.6808 955.3930 955.8542 955.8354 955.1430 953.7786 951.8453 949.6507 947.5125 945.6223 944.1116 943.0018 942.2526 941.6958 941.2078 940.9038 940.9264 941.3467 942.1567 943.1434 944.1031 944.9892 945.8029 946.5969 947.4304 948.3511 949.3930 950.5573 951.8354 953.2091 954.6494 956.1017 957.4815 958.6337 959.3608 959.3824 958.4827 956.6550 953.9865 950.7197 947.1909 943.9122 941.3080 939.5117 938.5176 938.0886 937.9876 938.0647 938.2083 938.3679 938.5187 938.6751 938.8519 939.0530 939.2802 939.5348 939.8696 940.4514 941.4033 942.7227 944.3654 946.2332 948.2355 950.3110 952.3954 954.4106 956.2219 957.9243
1072.7841 1077.6721 1083.1771 1089.2162 1095.6315 1102.2882 1109.1432 1116.1284 1123.0786 1129.8284 1136.2513 1142.3103 1148.1696 1153.9432 1159.5560 1164.8817 1169.7393 1173.9436 1177.3184 1179.8921 1182.1477 1184.3802 1186.3359 1187.6831 1188.0819 1187.4070 1185.9910 1184.1890 1182.2803 1180.2758 1177.6587 1173.9531 1168.8949 1162.2845 1154.0016 1144.1539 1133.2723 1122.0002 1111.1025 1101.3033 1093.2246 1087.4655 1084.5991 1084.7593 1087.2957 1091.2714 1095.3929 1098.6660 1100.6779 1101.2986 1100.7778 1099.2161 1096.4099 1092.5431 1088.4752 1084.9644 1082.5007 1081.2356 1080.8253 1080.9570 1081.4327 1082.0829 1082.7660 1083.3484 1083.7039 1083.6831 1083.1023 1081.7881 1079.5892 1076.4386 1072.3879 1067.5901 1062.3291 1057.0920 1052.6224 1049.4512 1047.7915 1047.5615 1048.3153 1049.4412 1050.1506 1049.8669 1048.3081 1045.6158 1042.4321 1039.2850 1036.5231 1034.4053 1033.0885 1032.4832 1032.2155 1031.9177 1031.2527 1030.0177 1028.1641 1025.7373 1022.8845 1019.9245 1017.3588 1015.6683 1015.2918 1016.4070 1018.9033 1022.3292 1025.8984 1028.9480 1030.9763 1031.9105 1032.1094 1032.1144 1032.6050 1033.7328 1035.1334 1036.4850 1037.5356 1038.2242 1038.6699 1039.0613 1039.6459 1040.6965 1042.5001 1045.2220 1048.9011 1053.2389 1057.6542 1061.7035 1065.0833 1067.7355 1069.8026 1071.3894 1072.5631 1073.3718 1073.8477 1073.9921 1073.7837 1073.2135 1072.2813 1070.9622 1069.2191 1067.1095 1064.7596 1062.2615 1059.6743 1056.9791 1054.1068 1051.0748 1047.9703 1044.9617 1042.2606 1039.9103 1037.8291 1035.8385 1033.7034 1031.2751 1028.4843 1025.5001 1022.6337 1020.0337 1017.7307 1015.6153 1013.5073 1011.4030 1009.4068 1007.6024 1006.0560 1004.7941 1003.8152 1003.0786 1002.5216 1002.0955 1001.7553 1001.4173 1000.9755 1000.3249 999.3905 998.3742 997.6224 997.4234 998.0189 999.5157 1001.9010 1004.7303 1007.3552 1009.2794 1010.1296 1009.9137 1008.8206 1006.9800 1004.4708 1001.2023 997.0377 992.1125 986.6913 981.0524 975.4761 970.2153 965.5027 961.5099 958.3468 955.8763 953.8680 952.1876 950.7451 949.4706 948.3051 947.2052 946.1404 945.1194 944.1647 943.2840 942.4806 941.7643 941.1479 940.6472 940.2712 939.9837 939.7339 939.4822 939.2007 938.9029 938.6157 938.3561 938.1344 937.9439 937.7733 937.6165 937.4752 937.3833 937.3913 937.5826 938.0380 938.7699 939.7284 940.6573 941.3025 941.7328 942.1038 942.5116 943.0260 943.6740 944.4658 945.3896 946.4074 947.3881 948.1854 948.7006 948.8830 948.8335 948.6941 948.6078 948.6869 948.9152 949.2526 949.6980 950.2522 950.8845 951.5581 952.2432 952.8922 953.3843 953.5733 953.2823 952.3738 950.8806 948.9202 946.7742 944.7361 943.0094 941.7378 940.9261 940.5092 940.2843 940.0851 939.9609 940.0084 940.3339 940.9921 941.8670 942.8271 943.7984 944.7411 945.6852 946.6744 947.7526 948.9519 950.2695 951.6931 953.2007 954.7587 956.3054 957.7679 959.0554 960.0331 960.4548 960.0876 958.7839 956.4792 953.2889 949.4930 945.7180 942.5296 940.2013 938.8248 938.1547 937.9262 937.9510 938.0834 938.2517 938.4129 938.5664 938.7178 938.8727 939.0383 939.2242 939.4819 939.9540 940.7526 941.8979 943.3685 945.0809 946.9490 948.8967 950.8475 952.7214 954.3950 955.8987
1069.5916 1074.1250 1079.3396 1085.0957 1091.2256 1097.5917 1104.1456 1110.8239 1117.4891 1123.9926 1130.1846 1136.0050 1141.6102 1147.1127 1152.4460 1157.5002 1162.1257 1166.1666 1169.4667 1172.0493 1174.3390 1176.5986 1178.6155 1180.0845 1180.6392 1180.0945 1178.6666 1176.6163 1174.1899 1171.4185 1167.9000 1163.2819 1157.4170 1150.2294 1141.7361 1132.1648 1122.1276 1112.2610 1103.1636 1095.3263 1089.0498 1084.7037 1082.8177 1083.5701 1086.4769 1090.7266 1095.0546 1098.4752 1100.5654 1101.1936 1100.6265 1099.0305 1096.3469 1092.7948 1089.0809 1085.8329 1083.4756 1082.1660 1081.6689 1081.7472 1082.2148 1082.9056 1083.6764 1084.3895 1084.9127 1085.1069 1084.8236 1083.9152 1082.2382 1079.7211 1076.3967 1072.4026 1068.0162 1063.7118 1060.2119 1057.9917 1057.1641 1057.5336 1058.5316 1059.5010 1059.7094 1058.6786 1056.2690 1052.7197 1048.7112 1044.8333 1041.5260 1039.0647 1037.5306 1036.7656 1036.3451 1035.9088 1035.1926 1034.0475 1032.4493 1030.3922 1027.8903 1025.1810 1022.7461 1021.0715 1020.6242 1021.6060 1023.9246 1027.1542 1030.5408 1033.4421 1035.3645 1036.2352 1036.4064 1036.3834 1036.7842 1037.7506 1038.9604 1040.1194 1040.9871 1041.5029 1041.7771 1042.0028 1042.4456 1043.4021 1045.1842 1047.8890 1051.4121 1055.4337 1059.4612 1063.1542 1066.3164 1068.9010 1070.9824 1072.6207 1073.8608 1074.7369 1075.2743 1075.4795 1075.3453 1074.8671 1074.0406 1072.8334 1071.1974 1069.1779 1066.8890 1064.4265 1061.8639 1059.1813 1056.2965 1053.2046 1049.9647 1046.7402 1043.7587 1041.1434 1038.9319 1037.0012 1035.1193 1033.0316 1030.4963 1027.5747 1024.5243 1021.5714 1018.9020 1016.4950 1014.2106 1012.0340 1010.0279 1008.2369 1006.6915 1005.3986 1004.3483 1003.5072 1002.8297 1002.2807 1001.8293 1001.4221 1000.9937 1000.4838 999.8577 999.2965 999.0944 999.5060 1000.7460 1002.8622 1005.7634 1008.9100 1011.5604 1013.2206 1013.5732 1012.7200 1010.9633 1008.5494 1005.6654 1002.2496 998.1483 993.4172 988.2200 982.7917 977.3961 972.2656 967.6125 963.6099 960.3798 957.8111 955.7017 953.9219 952.3758 950.9829 949.6740 948.4113 947.1751 945.9788 944.8478 943.8004 942.8525 942.0226 941.3296 940.7856 940.3917 940.0963 939.8320 939.5560 939.2424 938.9109 938.5947 938.3091 938.0610 937.8464 937.6570 937.4865 937.3355 937.2373 937.2399 937.4080 937.7968 938.3823 939.0878 939.6971 940.0146 940.1556 940.3092 940.5602 940.9580 941.5303 942.2922 943.2274 944.2836 945.2847 946.0430 946.4723 946.5553 946.4499 946.3480 946.3835 946.6406 947.0579 947.5524 948.1054 948.7088 949.3309 949.9362 950.4960 950.9644 951.2231 951.1407 950.6019 949.5328 947.9986 946.1293 944.1724 942.3813 940.9380 939.9689 939.4625 939.3434 939.4192 939.5176 939.6165 939.7484 940.0242 940.5344 941.2560 942.1338 943.0840 944.0425 945.0240 946.0613 947.1983 948.4671 949.8586 951.3539 952.9266 954.5397 956.1289 957.6314 959.0006 960.1508 960.8816 960.9697 960.1812 958.3396 955.4222 951.6145 947.5717 943.9354 941.1261 939.3558 938.4078 938.0170 937.9594 938.0538 938.2078 938.3619 938.5052 938.6375 938.7686 938.9136 939.0964 939.3636 939.8077 940.5052 941.4845 942.7458 944.2427 945.9127 947.6728 949.4385 951.1262 952.6235 953.9475
1067.0681 1071.1835 1076.0272 1081.4148 1087.1740 1093.1689 1099.3506 1105.6631 1111.9985 1118.2346 1124.2346 1129.9348 1135.4536 1140.8656 1146.0758 1150.9662 1155.4219 1159.3361 1162.6205 1165.3022 1167.6620 1169.8715 1171.7861 1173.1722 1173.6941 1173.1436 1171.6112 1169.2494 1166.2577 1162.6743 1158.1957 1152.5852 1145.8236 1137.9768 1129.2286 1119.9481 1110.8344 1102.5028 1095.3395 1089.5895 1085.2849 1082.6023 1082.0190 1083.6847 1087.1013 1091.4935 1095.7197 1098.9194 1100.7834 1101.2385 1100.5186 1098.8154 1096.2056 1092.9431 1089.5890 1086.6376 1084.4281 1083.1047 1082.5261 1082.5264 1082.9403 1083.6143 1084.4110 1085.1970 1085.8411 1086.2146 1086.1925 1085.6538 1084.4835 1082.6206 1080.0813 1076.9877 1073.6035 1070.3616 1067.9025 1066.6052 1066.4707 1067.2059 1068.1664 1068.7189 1068.2822 1066.5129 1063.3739 1059.1521 1054.5125 1050.0743 1046.3651 1043.6775 1042.0221 1041.1742 1040.6550 1040.1063 1039.3296 1038.2350 1036.8441 1035.1190 1032.9575 1030.5096 1028.2074 1026.5115 1025.8884 1026.5635 1028.4924 1031.2966 1034.2678 1036.8236 1038.5417 1039.3647 1039.5999 1039.6665 1040.0620 1040.9093 1041.9652 1042.9940 1043.7892 1044.2959 1044.6047 1044.8998 1045.4451 1046.5100 1048.3535 1051.0063 1054.2908 1057.9155 1061.5045 1064.8132 1067.7174 1070.1752 1072.2108 1073.8510 1075.1219 1076.0436 1076.6304 1076.8942 1076.8445 1076.4784 1075.7819 1074.7046 1073.1760 1071.2322 1068.9897 1066.5609 1064.0450 1061.4316 1058.6344 1055.6274 1052.4370 1049.1902 1046.0820 1043.2894 1040.9612 1039.0647 1037.4315 1035.7318 1033.5569 1030.8181 1027.6487 1024.3204 1021.1697 1018.2938 1015.6423 1013.2191 1011.0602 1009.1742 1007.5513 1006.1719 1005.0095 1004.0276 1003.1862 1002.4626 1001.8440 1001.3106 1000.8397 1000.4175 1000.0542 999.9410 1000.3597 1001.5187 1003.5577 1006.3619 1009.6487 1012.8400 1015.2404 1016.4417 1016.2261 1014.7450 1012.3344 1009.3525 1006.1240 1002.6276 998.6927 994.2723 989.3984 984.2668 979.1417 974.2426 969.7626 965.8505 962.6100 959.9583 957.7383 955.8392 954.1697 952.6381 951.1606 949.7087 948.2795 946.8886 945.5602 944.3251 943.2153 942.2590 941.4800 940.8865 940.4705 940.1643 939.8846 939.5870 939.2496 938.8973 938.5674 938.2731 938.0179 937.7964 937.6003 937.4212 937.2566 937.1366 937.1041 937.2103 937.4959 937.9329 938.4506 938.8740 939.0475 939.0700 939.1007 939.2169 939.4708 939.9131 940.5833 941.4716 942.5190 943.5084 944.2094 944.5332 944.4807 944.2735 944.1641 944.2825 944.6865 945.2681 945.8988 946.5416 947.1791 947.7797 948.3105 948.7463 949.0471 949.1074 948.8174 948.1082 946.9539 945.4519 943.7480 942.0616 940.6050 939.5070 938.8464 938.5952 938.6794 938.9498 939.2637 939.5534 939.7990 940.0864 940.5062 941.0960 941.8583 942.7186 943.6110 944.5435 945.5440 946.6596 947.9240 949.3217 950.8274 952.4133 954.0441 955.6633 957.2161 958.6614 959.9275 960.8515 961.2364 960.8340 959.4221 956.8693 953.2578 949.1818 945.2808 942.1043 939.9883 938.7750 938.2243 938.0783 938.1219 938.2479 938.3862 938.5176 938.6376 938.7589 938.8999 939.0868 939.3572 939.7722 940.3846 941.2245 942.3021 943.5936 945.0541 946.6049 948.1635 949.6492 950.9626 952.1135
1065.2880 1068.8965 1073.2600 1078.1873 1083.4987 1089.0535 1094.8042 1100.7054 1106.6793 1112.6364 1118.4711 1124.1299 1129.6914 1135.1752 1140.4137 1145.2427 1149.5688 1153.3501 1156.6372 1159.5033 1162.0409 1164.2739 1166.0693 1167.2366 1167.5073 1166.6987 1164.8301 1161.9873 1158.3412 1153.9368 1148.5436 1142.0132 1134.4312 1126.0061 1117.1365 1108.3445 1100.3463 1093.6733 1088.4630 1084.7285 1082.3345 1081.3326 1082.1395 1084.8250 1088.7656 1093.1682 1097.0709 1099.8049 1101.2386 1101.3883 1100.4308 1098.5541 1095.9409 1092.8774 1089.8184 1087.1495 1085.1199 1083.8418 1083.2324 1083.1763 1083.5347 1084.1731 1084.9675 1085.7946 1086.5316 1087.0619 1087.2777 1087.0814 1086.3896 1085.1597 1083.4066 1081.2432 1078.9127 1076.7837 1075.3744 1074.9374 1075.3492 1076.2334 1076.9174 1076.8511 1075.6716 1073.1954 1069.4573 1064.7598 1059.7218 1054.9596 1051.0537 1048.2944 1046.6188 1045.7404 1045.1387 1044.4700 1043.6123 1042.5336 1041.2853 1039.8158 1037.9625 1035.8040 1033.6913 1032.0055 1031.1378 1031.3235 1032.6187 1034.7560 1037.1439 1039.2887 1040.8247 1041.6801 1042.0756 1042.3199 1042.7832 1043.5669 1044.5096 1045.4443 1046.2150 1046.7799 1047.2094 1047.6656 1048.3916 1049.6024 1051.4758 1054.0037 1057.0109 1060.2627 1063.4829 1066.4879 1069.1772 1071.5042 1073.4655 1075.0715 1076.3419 1077.2852 1077.9019 1078.2101 1078.2391 1077.9862 1077.4197 1076.4611 1075.0056 1073.0874 1070.8452 1068.4224 1065.9536 1063.4498 1060.8329 1058.0526 1055.0873 1052.0118 1048.9727 1046.1641 1043.7997 1041.9344 1040.4922 1039.1177 1037.2950 1034.7958 1031.6047 1027.9863 1024.3634 1020.9435 1017.7962 1014.9796 1012.5401 1010.4630 1008.6957 1007.1851 1005.8787 1004.7273 1003.6868 1002.7451 1001.9088 1001.1946 1000.6257 1000.2403 1000.1042 1000.4636 1001.6362 1003.6951 1006.5562 1009.9024 1013.2878 1016.1962 1018.1037 1018.7213 1017.9141 1015.8437 1012.8345 1009.3483 1005.8569 1002.3830 998.7371 994.7474 990.2886 985.5190 980.7192 976.1072 971.8638 968.1043 964.8978 962.1862 959.8600 957.8362 956.0391 954.3659 952.7137 951.0592 949.4132 947.7994 946.2488 944.8060 943.5190 942.4246 941.5508 940.9005 940.4561 940.1367 939.8461 939.5396 939.1990 938.8498 938.5287 938.2461 938.0015 937.7877 937.5948 937.4125 937.2352 937.0859 936.9988 937.0176 937.1782 937.4617 937.8152 938.1046 938.2088 938.1927 938.1691 938.2076 938.3665 938.7109 939.2959 940.1180 941.1182 942.0607 942.6948 942.9236 942.7533 942.4526 942.3206 942.4855 942.9865 943.6808 944.4058 945.1065 945.7549 946.3208 946.7753 947.0988 947.2598 947.1723 946.7509 945.9610 944.8098 943.4143 941.9269 940.5350 939.4086 938.6263 938.2246 938.1623 938.3701 938.7417 939.1707 939.5765 939.9149 940.2395 940.6211 941.1195 941.7656 942.5057 943.2896 944.1265 945.0444 946.0912 947.3004 948.6517 950.1159 951.6667 953.2726 954.8868 956.4597 957.9412 959.2586 960.2773 960.8232 960.6465 959.5112 957.2524 953.9024 949.9688 946.0429 942.7371 940.4597 939.1086 938.4744 938.2759 938.2762 938.3683 938.4843 938.6014 938.7125 938.8307 938.9731 939.1594 939.4174 939.7922 940.3256 941.0457 941.9661 943.0727 944.3309 945.6715 947.0209 948.3057 949.4403 950.4112
1064.0876 1067.1099 1070.9015 1075.3025 1080.1150 1085.1799 1090.4536 1095.9050 1101.4894 1107.1532 1112.8256 1118.4702 1124.1382 1129.7963 1135.1786 1140.0466 1144.3035 1147.9655 1151.2607 1154.3441 1157.1392 1159.5052 1161.2289 1162.0990 1161.9304 1160.6082 1158.1584 1154.6670 1150.3048 1145.1295 1138.9469 1131.6663 1123.4672 1114.7021 1106.0011 1098.0142 1091.3665 1086.4259 1083.0797 1081.1542 1080.4636 1081.0029 1083.0944 1086.6910 1091.0232 1095.2778 1098.7012 1100.8358 1101.7266 1101.4788 1100.2178 1098.1179 1095.4330 1092.4750 1089.6364 1087.2264 1085.4078 1084.2467 1083.6774 1083.6104 1083.9360 1084.5448 1085.3306 1086.1858 1087.0018 1087.6763 1088.1167 1088.2446 1088.0006 1087.3624 1086.3589 1085.0981 1083.7933 1082.7341 1082.2971 1082.5981 1083.3912 1084.2416 1084.5038 1083.7424 1081.8131 1078.6891 1074.4739 1069.4813 1064.2773 1059.4445 1055.5573 1052.8713 1051.2535 1050.3695 1049.6827 1048.8861 1047.9535 1046.8973 1045.7531 1044.4579 1042.8462 1040.9534 1039.0421 1037.3782 1036.2169 1035.7911 1036.2974 1037.6323 1039.3816 1041.1476 1042.5740 1043.5371 1044.1488 1044.6080 1045.1814 1045.9515 1046.8196 1047.6812 1048.4375 1049.0663 1049.6206 1050.2355 1051.1167 1052.4209 1054.2518 1056.5955 1059.3312 1062.2872 1065.2526 1068.0656 1070.6117 1072.8307 1074.7084 1076.2546 1077.4968 1078.4391 1079.0690 1079.4072 1079.4980 1079.3352 1078.8680 1077.9849 1076.5405 1074.5753 1072.2710 1069.8137 1067.3812 1065.0132 1062.6481 1060.2083 1057.6145 1054.8879 1052.1273 1049.5143 1047.2775 1045.5236 1044.2482 1043.1093 1041.5594 1039.2797 1036.1332 1032.3361 1028.3168 1024.3599 1020.6520 1017.3340 1014.5073 1012.1555 1010.1900 1008.5189 1007.0509 1005.7133 1004.4495 1003.2516 1002.1436 1001.1850 1000.4570 1000.0596 1000.1237 1000.9747 1002.9857 1006.0014 1009.5768 1013.2115 1016.3944 1018.7626 1020.0410 1020.0549 1018.7086 1016.1490 1012.6735 1008.8218 1005.1860 1001.8380 998.5862 995.1299 991.1713 986.8180 982.3571 978.0186 973.9929 970.3732 967.1986 964.4286 961.9916 959.8376 957.9158 956.1094 954.2891 952.4278 950.5439 948.6783 946.8824 945.2161 943.7404 942.5008 941.5303 940.8228 940.3477 940.0142 939.7193 939.4200 939.1011 938.7831 938.4948 938.2418 938.0209 937.8240 937.6411 937.4604 937.2738 937.0937 936.9429 936.8627 936.8915 937.0204 937.2137 937.3755 937.4173 937.3804 937.3420 937.3626 937.4982 937.8090 938.3447 939.1019 940.0246 940.8889 941.4551 941.6236 941.3978 941.0612 940.9275 941.1191 941.6633 942.4048 943.1671 943.8817 944.5103 945.0245 945.4011 945.6272 945.6813 945.4989 945.0195 944.2347 943.1726 941.9489 940.7029 939.5845 938.7244 938.1759 937.9559 938.0156 938.2877 938.6912 939.1467 939.5889 939.9767 940.3384 940.7181 941.1651 941.7108 942.3265 942.9861 943.7076 944.5219 945.4736 946.5928 947.8567 949.2356 950.7061 952.2413 953.8012 955.3391 956.7972 958.1002 959.1318 959.7300 959.6309 958.5973 956.5085 953.4128 949.7442 946.0274 942.8611 940.6581 939.3443 938.7308 938.5293 938.5004 938.5566 938.6454 938.7461 938.8504 938.9691 939.1143 939.2944 939.5278 939.8538 940.3099 940.9233 941.7072 942.6497 943.7213 944.8637 946.0143 947.1096 948.0775 948.9102
1062.9799 1065.3966 1068.6074 1072.4862 1076.7982 1081.3523 1086.1144 1091.0765 1096.2329 1101.5681 1107.0427 1112.6356 1118.3799 1124.2048 1129.7748 1134.7888 1139.1161 1142.7836 1146.1237 1149.3519 1152.3275 1154.8116 1156.4575 1156.9845 1156.2878 1154.3378 1151.2163 1147.0509 1142.0334 1136.2300 1129.4349 1121.6012 1113.0668 1104.3495 1096.2291 1089.3888 1084.2634 1081.0156 1079.3452 1078.9713 1079.7467 1081.6367 1084.7831 1088.9890 1093.4208 1097.3108 1100.1276 1101.6078 1101.9095 1101.1985 1099.5826 1097.2396 1094.4717 1091.6046 1088.9814 1086.8467 1085.2820 1084.3005 1083.8298 1083.7909 1084.1060 1084.6943 1085.4717 1086.3506 1087.2395 1088.0521 1088.7095 1089.1488 1089.3296 1089.2460 1088.9393 1088.5068 1088.1185 1087.9786 1088.3245 1089.1528 1090.1318 1090.8204 1090.6697 1089.3458 1086.8064 1083.1315 1078.5363 1073.3801 1068.1910 1063.4913 1059.7750 1057.2333 1055.6901 1054.7957 1054.0297 1053.1443 1052.2177 1051.2797 1050.2830 1049.1221 1047.6378 1045.8499 1043.9773 1042.2107 1040.7025 1039.6910 1039.4962 1040.1476 1041.3661 1042.8221 1044.1576 1045.2036 1045.9862 1046.6202 1047.2933 1048.0708 1048.8966 1049.7131 1050.4688 1051.1586 1051.8241 1052.5746 1053.5774 1054.9409 1056.7158 1058.8905 1061.3973 1064.1156 1066.8807 1069.5439 1071.9747 1074.0973 1075.8843 1077.3500 1078.5394 1079.4630 1080.1042 1080.4742 1080.6038 1080.4779 1080.0404 1079.1545 1077.6388 1075.5496 1073.1235 1070.5986 1068.1987 1065.9878 1063.9103 1061.8682 1059.7422 1057.5065 1055.2101 1053.0195 1051.1700 1049.7626 1048.7787 1047.8759 1046.5129 1044.3475 1041.2004 1037.2499 1032.8947 1028.4515 1024.1794 1020.3032 1017.0099 1014.3110 1012.1070 1010.2657 1008.6396 1007.1182 1005.6203 1004.1312 1002.6838 1001.3972 1000.4400 999.9858 1000.2289 1001.5322 1004.2678 1008.0524 1012.1140 1015.8260 1018.6759 1020.4701 1021.1730 1020.7040 1018.9841 1016.1443 1012.4554 1008.4730 1004.8291 1001.6627 998.8425 995.9709 992.5878 988.7028 984.5455 980.3710 976.4268 972.8206 969.5891 966.7047 964.1162 961.8074 959.7586 957.8301 955.8512 953.7836 951.6497 949.5147 947.4602 945.5620 943.8920 942.5087 941.4550 940.7075 940.2106 939.8660 939.5708 939.2891 939.0120 938.7479 938.5085 938.2940 938.0999 937.9207 937.7495 937.5730 937.3785 937.1682 936.9546 936.7782 936.6808 936.6650 936.7120 936.7565 936.7370 936.6802 936.6389 936.6633 936.8024 937.1033 937.6028 938.2905 939.1125 939.8779 940.3831 940.5390 940.3483 940.0725 939.9995 940.2316 940.7836 941.5102 942.2471 942.9228 943.4937 943.9344 944.2271 944.3657 944.3385 944.1024 943.6199 942.9048 941.9968 940.9847 939.9729 939.0792 938.4092 938.0129 937.9077 938.0383 938.3353 938.7332 939.1727 939.6112 940.0208 940.4109 940.8009 941.2159 941.6744 942.1696 942.6995 943.2933 943.9874 944.8224 945.8230 946.9656 948.2210 949.5701 950.9913 952.4500 953.9025 955.2845 956.5176 957.4936 958.0586 957.9501 956.9493 954.9989 952.1796 948.8605 945.4963 942.6425 940.6821 939.5334 939.0077 938.8279 938.7736 938.7892 938.8479 938.9324 939.0341 939.1591 939.3120 939.4896 939.6998 939.9788 940.3622 940.8766 941.5356 942.3279 943.2279 944.1871 945.1536 946.0737 946.8875 947.5624
1061.5522 1063.4171 1066.1237 1069.5576 1073.4200 1077.4709 1081.6979 1086.1298 1090.8096 1095.7644 1100.9772 1106.4370 1112.1627 1118.0648 1123.7865 1128.9968 1133.5164 1137.3326 1140.7657 1144.0369 1147.0420 1149.5310 1151.0289 1151.1786 1149.9392 1147.3622 1143.6055 1138.8564 1133.3340 1127.1053 1119.9227 1111.7853 1103.2627 1095.0472 1087.9351 1082.5249 1079.0095 1077.3436 1077.1211 1078.0294 1080.0032 1082.9839 1086.8728 1091.3199 1095.5344 1098.8656 1100.9921 1101.8051 1101.5051 1100.2877 1098.2881 1095.7135 1092.8997 1090.1722 1087.8184 1086.0142 1084.7622 1084.0193 1083.6943 1083.7133 1084.0342 1084.6099 1085.3806 1086.2811 1087.2386 1088.1824 1089.0453 1089.7773 1090.3525 1090.7739 1091.0846 1091.3599 1091.7168 1092.2751 1093.1503 1094.2561 1095.2378 1095.7039 1095.2435 1093.5852 1090.6447 1086.5491 1081.6788 1076.4797 1071.4556 1067.0450 1063.5955 1061.2126 1059.7152 1058.7761 1057.9272 1056.9948 1056.1511 1055.4194 1054.6304 1053.6035 1052.1648 1050.3322 1048.3318 1046.3452 1044.4989 1043.0480 1042.3755 1042.5720 1043.4144 1044.6105 1045.8185 1046.8560 1047.7057 1048.4301 1049.1592 1049.9423 1050.7474 1051.5449 1052.3121 1053.0549 1053.8090 1054.6635 1055.7539 1057.1567 1058.8925 1060.9481 1063.2810 1065.8031 1068.3881 1070.9061 1073.2273 1075.2622 1076.9590 1078.3325 1079.4490 1080.3337 1080.9775 1081.3680 1081.4906 1081.3131 1080.7847 1079.7665 1078.0707 1075.7859 1073.2092 1070.6245 1068.2882 1066.2711 1064.5057 1062.8801 1061.2588 1059.5812 1057.8527 1056.2365 1054.9872 1054.1522 1053.6157 1053.0065 1051.8020 1049.6879 1046.5140 1042.4430 1037.8320 1032.9948 1028.2156 1023.7908 1020.0043 1016.9222 1014.4697 1012.4772 1010.7251 1009.0520 1007.3395 1005.5533 1003.7237 1002.0362 1000.7629 1000.1616 1000.4915 1002.1056 1005.3128 1009.5569 1013.8517 1017.5007 1020.0124 1021.3315 1021.6083 1020.8363 1018.9509 1016.0753 1012.4578 1008.6025 1005.0920 1002.1400 999.7299 997.4253 994.6510 991.2717 987.3799 983.2542 979.2325 975.4772 972.0604 968.9675 966.1552 963.6420 961.4463 959.3992 957.2781 955.0243 952.6567 950.2645 947.9617 945.8385 943.9757 942.4541 941.3365 940.5750 940.0768 939.7343 939.4471 939.1931 938.9759 938.7844 938.6035 938.4272 938.2535 938.0845 937.9208 937.7466 937.5433 937.3058 937.0396 936.7823 936.5765 936.4357 936.3563 936.2964 936.2145 936.1290 936.0770 936.0988 936.2342 936.5182 936.9750 937.5839 938.2911 938.9488 939.4032 939.5905 939.5187 939.3994 939.4607 939.7676 940.3148 940.9838 941.6438 942.2332 942.7125 943.0604 943.2635 943.3216 943.2319 942.9688 942.5142 941.8997 941.1696 940.3711 939.5625 938.8391 938.2950 937.9898 937.9506 938.1183 938.4204 938.8026 939.2202 939.6472 940.0662 940.4742 940.8716 941.2595 941.6409 942.0240 942.4258 942.8864 943.4484 944.1486 945.0074 946.0001 947.0989 948.2899 949.5577 950.8751 952.2028 953.4724 954.6015 955.4823 955.9688 955.8253 954.8679 953.0868 950.5822 947.6635 944.7197 942.2576 940.6190 939.6931 939.2796 939.1287 939.0529 939.0319 939.0645 939.1378 939.2421 939.3783 939.5436 939.7244 939.9196 940.1605 940.4794 940.9029 941.4458 942.0994 942.8427 943.6359 944.4355 945.1969 945.8704 946.4423
1059.5215 1060.9723 1063.3334 1066.4730 1069.9902 1073.5732 1077.2501 1081.1095 1085.2570 1089.7692 1094.6439 1099.8732 1105.4619 1111.3098 1117.0614 1122.3813 1127.0677 1131.0676 1134.6233 1137.9059 1140.8335 1143.1644 1144.3812 1144.1064 1142.3445 1139.2070 1134.9287 1129.7544 1123.9164 1117.4811 1110.1821 1102.0800 1093.9684 1086.6665 1080.8690 1077.0179 1075.0944 1074.8873 1075.9220 1077.8718 1080.7378 1084.4487 1088.7341 1093.1495 1096.9786 1099.6855 1101.1036 1101.2360 1100.3147 1098.5702 1096.1921 1093.4304 1090.6412 1088.1375 1086.1429 1084.7579 1083.8973 1083.4542 1083.3149 1083.4111 1083.7452 1084.3098 1085.0719 1085.9884 1087.0038 1088.0612 1089.1033 1090.0890 1091.0007 1091.8429 1092.6486 1093.4657 1094.3599 1095.3762 1096.5275 1097.6893 1098.5582 1098.8203 1098.1659 1096.3412 1093.1724 1088.8131 1083.8253 1078.7443 1074.0348 1070.0298 1066.9011 1064.6658 1063.1631 1062.1195 1061.1499 1060.1539 1059.3621 1058.7915 1058.1964 1057.3353 1055.9950 1054.1748 1052.1045 1049.9801 1047.9528 1046.2832 1045.3395 1045.2202 1045.7358 1046.6373 1047.6343 1048.5590 1049.3728 1050.1044 1050.8408 1051.6152 1052.4053 1053.1942 1053.9736 1054.7554 1055.5725 1056.4996 1057.6458 1059.0663 1060.7657 1062.7294 1064.9249 1067.2861 1069.7162 1072.1056 1074.3353 1076.3026 1077.9246 1079.2096 1080.2388 1081.0529 1081.6545 1082.0048 1082.0319 1081.6729 1080.8698 1079.5189 1077.5007 1074.9674 1072.2734 1069.7181 1067.5427 1065.7970 1064.3892 1063.1874 1062.0385 1060.8647 1059.6553 1058.5807 1057.9136 1057.6516 1057.5894 1057.3348 1056.3917 1054.4685 1051.4315 1047.4083 1042.6935 1037.5938 1032.4254 1027.5479 1023.3253 1019.8942 1017.2351 1015.1498 1013.3420 1011.5916 1009.7349 1007.7089 1005.5301 1003.4207 1001.7199 1000.7738 1000.9337 1002.5663 1005.9428 1010.3861 1014.7552 1018.2935 1020.5107 1021.4548 1021.4229 1020.4781 1018.5829 1015.8525 1012.5034 1008.9590 1005.7133 1003.0198 1000.9557 999.1125 996.8961 994.0272 990.4190 986.3371 982.1822 978.1841 974.4787 971.0763 967.9458 965.1500 962.7545 960.5727 958.3384 955.9581 953.4254 950.8405 948.3400 946.0233 943.9788 942.3221 941.1522 940.3993 939.9307 939.6204 939.3624 939.1536 939.0175 938.9162 938.7974 938.6510 938.4834 938.3095 938.1418 937.9626 937.7474 937.4880 937.1871 936.8757 936.5903 936.3507 936.1647 936.0097 935.8611 935.7336 935.6544 935.6548 935.7666 936.0144 936.4119 936.9313 937.5207 938.0743 938.4872 938.7253 938.8062 938.8869 939.1279 939.5449 940.1015 940.7075 941.2709 941.7511 942.1232 942.3715 942.4861 942.4717 942.3318 942.0524 941.6275 941.0969 940.5046 939.8701 939.2209 938.6342 938.1924 937.9572 937.9606 938.1487 938.4547 938.8317 939.2427 939.6689 940.0966 940.5158 940.9152 941.2764 941.5886 941.8699 942.1502 942.4785 942.9023 943.4550 944.1532 944.9719 945.8853 946.8862 947.9677 949.1140 950.2942 951.4397 952.4656 953.2607 953.6854 953.5370 952.6671 951.0975 948.9359 946.4394 943.9350 941.8651 940.5225 939.7874 939.4675 939.3466 939.2700 939.2375 939.2625 939.3360 939.4487 939.5964 939.7711 939.9542 940.1396 940.3524 940.6198 940.9667 941.4081 941.9385 942.5425 943.1879 943.8397 944.4608 945.0103 945.4552
1056.7310 1057.9941 1060.2335 1063.2625 1066.5530 1069.7111 1072.8265 1076.0714 1079.6312 1083.6405 1088.1033 1093.0055 1098.3363 1103.9856 1109.6044 1114.8688 1119.5940 1123.7097 1127.3617 1130.6366 1133.4211 1135.4670 1136.2906 1135.5530 1133.2944 1129.6775 1125.0172 1119.6124 1113.6857 1107.3005 1100.2185 1092.5673 1085.2791 1079.2090 1074.8705 1072.5270 1072.0352 1073.0909 1075.1748 1077.9379 1081.3907 1085.4536 1089.8087 1094.0018 1097.3811 1099.4883 1100.2424 1099.7217 1098.2114 1095.9961 1093.3240 1090.4825 1087.8284 1085.6483 1084.1029 1083.2147 1082.8051 1082.6992 1082.7603 1082.9299 1083.2682 1083.8138 1084.5601 1085.4832 1086.5405 1087.6860 1088.8704 1090.0580 1091.2339 1092.3962 1093.5598 1094.7440 1095.9719 1097.2301 1098.4543 1099.5190 1100.2205 1100.3213 1099.5480 1097.6398 1094.3673 1089.9199 1085.0110 1080.2314 1075.9722 1072.4458 1069.6597 1067.5569 1066.0153 1064.8325 1063.7236 1062.6469 1061.8398 1061.3226 1060.8492 1060.1575 1058.9916 1057.3136 1055.3253 1053.2308 1051.2260 1049.5543 1048.5031 1048.1470 1048.3362 1048.8854 1049.5868 1050.3093 1051.0024 1051.6711 1052.3706 1053.1172 1053.8885 1054.6699 1055.4564 1056.2615 1057.1178 1058.0880 1059.2599 1060.6738 1062.3260 1064.2019 1066.2776 1068.5018 1070.7992 1073.0775 1075.2312 1077.1458 1078.7070 1079.9121 1080.8484 1081.5665 1082.0804 1082.3251 1082.1748 1081.5201 1080.2701 1078.3922 1075.9144 1073.0896 1070.3302 1067.9171 1066.0177 1064.6306 1063.6301 1062.8512 1062.1102 1061.3273 1060.5094 1059.8423 1059.6091 1059.7871 1060.1323 1060.2570 1059.6941 1058.1503 1055.4645 1051.6923 1047.0365 1041.8124 1036.4072 1031.2408 1026.7322 1023.0792 1020.3206 1018.2388 1016.4727 1014.7498 1012.8620 1010.7098 1008.2794 1005.7900 1003.5995 1002.1356 1001.8590 1003.1870 1006.4009 1010.7640 1015.0426 1018.4244 1020.3923 1021.0521 1020.7977 1019.7579 1017.9382 1015.4442 1012.4518 1009.3019 1006.3956 1003.9775 1002.1594 1000.6094 998.8065 996.3705 993.0504 989.0643 984.8236 980.6044 976.6002 972.8486 969.3385 966.1918 963.5415 961.2085 958.9048 956.4878 953.8973 951.2233 948.6093 946.1581 943.9656 942.1866 940.9634 940.2180 939.7908 939.5335 939.3254 939.1809 939.1443 939.1446 939.0851 938.9559 938.7789 938.5854 938.4015 938.2093 937.9802 937.7070 937.3925 937.0563 936.7224 936.4108 936.1359 935.8921 935.6718 935.4880 935.3614 935.3176 935.3821 935.5717 935.8929 936.3159 936.7946 937.2572 937.6379 937.9291 938.1586 938.4372 938.8663 939.4102 939.9978 940.5584 941.0328 941.4067 941.6757 941.8306 941.8649 941.7871 941.6052 941.3113 940.9040 940.4216 939.9044 939.3677 938.8320 938.3583 938.0127 937.8456 937.8845 938.0892 938.4079 938.7982 939.2243 939.6651 940.1038 940.5272 940.9185 941.2483 941.4977 941.6903 941.8631 942.0692 942.3582 942.7598 943.2873 943.9161 944.6230 945.4090 946.2783 947.2330 948.2569 949.2851 950.2323 950.9807 951.3928 951.2927 950.5601 949.2359 947.4282 945.3515 943.2744 941.5587 940.4439 939.8330 939.5685 939.4708 939.4117 939.3940 939.4308 939.5165 939.6425 939.8007 939.9800 940.1630 940.3423 940.5363 940.7664 941.0533 941.4103 941.8355 942.3184 942.8351 943.3585 943.8580 944.3002 944.6599
1053.1799 1054.5712 1056.9514 1060.0352 1063.1835 1065.9427 1068.4828 1071.0757 1074.0034 1077.4669 1081.4636 1085.9618 1090.9338 1096.2596 1101.5995 1106.6469 1111.2476 1115.3284 1118.9509 1122.1301 1124.7339 1126.5039 1126.9500 1125.7472 1122.9946 1118.9357 1114.0016 1108.5626 1102.8120 1096.8029 1090.3503 1083.6193 1077.5300 1072.8590 1069.9220 1068.8347 1069.4298 1071.3997 1074.2347 1077.5713 1081.3579 1085.4834 1089.6644 1093.4965 1096.3937 1097.9565 1098.1479 1097.0975 1095.1583 1092.6721 1089.9235 1087.2076 1084.8459 1083.0826 1082.0304 1081.6510 1081.6844 1081.8960 1082.1243 1082.3268 1082.6349 1083.1416 1083.8590 1084.7756 1085.8552 1087.0586 1088.3447 1089.6818 1091.0520 1092.4431 1093.8495 1095.2640 1096.6760 1098.0347 1099.2351 1100.1614 1100.6868 1100.6239 1099.7080 1097.6963 1094.3929 1090.0398 1085.4230 1081.1227 1077.4142 1074.3906 1071.9462 1069.9847 1068.4344 1067.1661 1065.9869 1064.8859 1064.0616 1063.5278 1063.0725 1062.4532 1061.4142 1059.8948 1058.0511 1056.0802 1054.2106 1052.6541 1051.5966 1051.0757 1050.9747 1051.1724 1051.5510 1052.0262 1052.5483 1053.1099 1053.7416 1054.4456 1055.1943 1055.9686 1056.7588 1057.5762 1058.4530 1059.4419 1060.6112 1061.9908 1063.5742 1065.3507 1067.3054 1069.3989 1071.5691 1073.7366 1075.8060 1077.6555 1079.1487 1080.2743 1081.1229 1081.7504 1082.1746 1082.3046 1081.9641 1080.9856 1079.2238 1076.7281 1073.7101 1070.5511 1067.7416 1065.5303 1063.9752 1063.0016 1062.4380 1062.0756 1061.6910 1061.2102 1060.6763 1060.2960 1060.3618 1060.8473 1061.4984 1061.9434 1061.7460 1060.6112 1058.3508 1054.9279 1050.4249 1045.1801 1039.6910 1034.4448 1029.8986 1026.2679 1023.5963 1021.6492 1020.0366 1018.4603 1016.6862 1014.5650 1012.0245 1009.2678 1006.6655 1004.7029 1003.9167 1004.7420 1007.4510 1011.3394 1015.2224 1018.2896 1020.0015 1020.4548 1020.0457 1018.9415 1017.1985 1014.9199 1012.2480 1009.4518 1006.8477 1004.6426 1002.9435 1001.4910 999.8570 997.6363 994.5035 990.6442 986.4559 982.2006 978.0589 974.0638 970.2137 966.7101 963.7878 961.3103 958.9978 956.6487 954.1246 951.4848 948.8641 946.3674 944.0990 942.2348 940.9412 940.1554 939.7271 939.5007 939.3444 939.2778 939.3487 939.4489 939.4382 939.3130 939.1179 938.8990 938.6933 938.4854 938.2465 937.9708 937.6603 937.3207 936.9598 936.5953 936.2455 935.9193 935.6235 935.3718 935.1813 935.0747 935.0741 935.1915 935.4293 935.7591 936.1423 936.5327 936.8925 937.2332 937.5886 938.0303 938.6113 939.2599 939.8808 940.4167 940.8301 941.1259 941.3156 941.3963 941.3652 941.2351 941.0182 940.7112 940.3152 939.8633 939.3907 938.9146 938.4559 938.0655 937.7963 937.6868 937.7582 937.9830 938.3224 938.7368 939.1882 939.6483 940.0929 940.5065 940.8718 941.1593 941.3514 941.4733 941.5626 941.6696 941.8402 942.1008 942.4620 942.8987 943.3903 943.9467 944.5862 945.3366 946.2042 947.1314 948.0327 948.7759 949.2173 949.2012 948.6292 947.5558 946.0891 944.4106 942.7382 941.3508 940.4333 939.9153 939.6788 939.5856 939.5367 939.5339 939.5867 939.6889 939.8311 940.0016 940.1875 940.3729 940.5507 940.7332 940.9363 941.1761 941.4644 941.8015 942.1815 942.5883 943.0015 943.3965 943.7459 944.0063
1049.0950 1050.8489 1053.5471 1056.7987 1059.8799 1062.3007 1064.3068 1066.2660 1068.5610 1071.4606 1074.9459 1078.9635 1083.4789 1088.3713 1093.3080 1097.9954 1102.3035 1106.1598 1109.5710 1112.5156 1114.8859 1116.4222 1116.5592 1114.9434 1111.7662 1107.3845 1102.3527 1097.1133 1091.8231 1086.5217 1081.0847 1075.6687 1071.0305 1067.7676 1066.0220 1065.8209 1067.0707 1069.5469 1072.8055 1076.4823 1080.4067 1084.4058 1088.2623 1091.6494 1094.0546 1095.1364 1094.8900 1093.4874 1091.3455 1088.8470 1086.2761 1083.8994 1081.9701 1080.6776 1080.1069 1080.1858 1080.6062 1081.0903 1081.4446 1081.6393 1081.8866 1082.3351 1083.0052 1083.8916 1084.9650 1086.1931 1087.5424 1088.9819 1090.4860 1092.0295 1093.5886 1095.1353 1096.6350 1098.0197 1099.1749 1099.9882 1100.3505 1100.0931 1098.9705 1096.8031 1093.5159 1089.4132 1085.2644 1081.5718 1078.4631 1075.9261 1073.8069 1072.0093 1070.5144 1069.2555 1068.1079 1067.0653 1066.2588 1065.6816 1065.1610 1064.5013 1063.4971 1062.0903 1060.3889 1058.5690 1056.8685 1055.4603 1054.4399 1053.8063 1053.4629 1053.3413 1053.4064 1053.6223 1053.9523 1054.3844 1054.9318 1055.5839 1056.3077 1057.0760 1057.8691 1058.6929 1059.5767 1060.5626 1061.7014 1063.0157 1064.5026 1066.1591 1067.9818 1069.9406 1071.9810 1074.0303 1075.9991 1077.7637 1079.1793 1080.2294 1081.0017 1081.5511 1081.8944 1081.9137 1081.3846 1080.0852 1077.8196 1074.7240 1071.1974 1067.7465 1064.9294 1062.9545 1061.7621 1061.2018 1061.0587 1061.0764 1060.9851 1060.7174 1060.3604 1060.1465 1060.3806 1061.0404 1061.8722 1062.5214 1062.5797 1061.7600 1059.8619 1056.7683 1052.4503 1047.2821 1041.8848 1036.8044 1032.5116 1029.1921 1026.8368 1025.2013 1023.9091 1022.6534 1021.1735 1019.2506 1016.7267 1013.8004 1010.8832 1008.4989 1007.2140 1007.4274 1009.3571 1012.4097 1015.5873 1018.1509 1019.5651 1019.8599 1019.3405 1018.1766 1016.4692 1014.3268 1011.8726 1009.3188 1006.9102 1004.8085 1003.0976 1001.5622 999.8464 997.5908 994.5002 990.7700 986.7900 982.7500 978.7354 974.7240 970.6906 966.9160 963.7518 961.1403 958.8492 956.6289 954.2583 951.7525 949.2210 946.7706 944.5156 942.6268 941.2656 940.4017 939.9272 939.7025 939.5992 939.6237 939.8015 939.9842 939.9933 939.8329 939.5715 939.2813 939.0225 938.7874 938.5471 938.2872 937.9975 937.6671 937.2897 936.8813 936.4646 936.0601 935.6865 935.3592 935.0938 934.9121 934.8354 934.8736 935.0278 935.2730 935.5780 935.9141 936.2624 936.6436 937.0903 937.6418 938.3148 939.0240 939.6696 940.2017 940.5931 940.8541 941.0008 941.0355 940.9609 940.7948 940.5544 940.2399 939.8543 939.4261 938.9863 938.5515 938.1426 937.8054 937.5872 937.5201 937.6219 937.8710 938.2355 938.6763 939.1537 939.6295 940.0709 940.4603 940.7823 941.0182 941.1592 941.2292 941.2613 941.2966 941.3726 941.5124 941.7241 941.9811 942.2638 942.5905 942.9955 943.5385 944.2545 945.0987 945.9860 946.7597 947.2585 947.3408 946.9257 946.0822 944.9215 943.6002 942.2940 941.2079 940.4755 940.0423 939.8221 939.7198 939.6691 939.6742 939.7425 939.8640 940.0254 940.2123 940.4101 940.6033 940.7841 940.9604 941.1435 941.3466 941.5795 941.8443 942.1387 942.4529 942.7733 943.0795 943.3488 943.5516
1044.9634 1047.0281 1049.9874 1053.4280 1056.5419 1058.7799 1060.4191 1061.8820 1063.6279 1065.9789 1068.9030 1072.3389 1076.2828 1080.6387 1085.0719 1089.2869 1093.1610 1096.6194 1099.6399 1102.1920 1104.2108 1105.4543 1105.3048 1103.4021 1100.0504 1095.7026 1090.9419 1086.2177 1081.6663 1077.3287 1073.1328 1069.1945 1066.0331 1064.0256 1063.1755 1063.4772 1064.9885 1067.6278 1071.0344 1074.8495 1078.7744 1082.5616 1086.0444 1088.9636 1090.8829 1091.5298 1090.9550 1089.3752 1087.2383 1084.9319 1082.7051 1080.7732 1079.3171 1078.4735 1078.3082 1078.7419 1079.4713 1080.2007 1080.6810 1080.8761 1081.0704 1081.4594 1082.0605 1082.8749 1083.8993 1085.1187 1086.5002 1088.0078 1089.6011 1091.2407 1092.8890 1094.5054 1096.0441 1097.4308 1098.5520 1099.2831 1099.4872 1099.0042 1097.6465 1095.3300 1092.1140 1088.3513 1084.7445 1081.6873 1079.1578 1077.0605 1075.2435 1073.6324 1072.2494 1071.0713 1070.0184 1069.0785 1068.3184 1067.7124 1067.1238 1066.4054 1065.4084 1064.0858 1062.5054 1060.8210 1059.2699 1057.9878 1056.9963 1056.2610 1055.6971 1055.2799 1055.0471 1055.0089 1055.1451 1055.4442 1055.9033 1056.5016 1057.2009 1057.9655 1058.7639 1059.5925 1060.4731 1061.4354 1062.5139 1063.7296 1065.0908 1066.6072 1068.2872 1070.1085 1072.0192 1073.9498 1075.8137 1077.4917 1078.8433 1079.8403 1080.5466 1081.0085 1081.2458 1081.1146 1080.3419 1078.6827 1075.9453 1072.3734 1068.5446 1065.0287 1062.3563 1060.6666 1059.8058 1059.5798 1059.7648 1060.0657 1060.1573 1059.9775 1059.6595 1059.4664 1059.7214 1060.4105 1061.2828 1061.9990 1062.1718 1061.5107 1059.7971 1056.8914 1052.7465 1047.7832 1042.7040 1038.0612 1034.2850 1031.5159 1029.7012 1028.6106 1027.9081 1027.2478 1026.2825 1024.6940 1022.2299 1019.1133 1015.8432 1012.9942 1011.1560 1010.6799 1011.7191 1013.8008 1016.1359 1018.0875 1019.1531 1019.2864 1018.6713 1017.4517 1015.7495 1013.6760 1011.3438 1008.9199 1006.5905 1004.4800 1002.6515 1000.9192 998.9820 996.5481 993.3934 989.7640 986.0771 982.4448 978.8311 975.1111 971.1795 967.3410 964.0197 961.2615 958.9360 956.7911 954.5610 952.2131 949.8149 947.4720 945.3091 943.4777 942.1161 941.2180 940.7163 940.5050 940.4782 940.6143 940.8932 941.1241 941.0931 940.7998 940.3290 939.8214 939.4133 939.1123 938.8804 938.6650 938.4134 938.0966 937.7001 937.2439 936.7593 936.2766 935.8237 935.4179 935.0742 934.8137 934.6572 934.6141 934.6865 934.8540 935.0923 935.3849 935.7242 936.1307 936.6298 937.2364 937.9443 938.6733 939.3342 939.8821 940.2908 940.5620 940.7042 940.7252 940.6359 940.4603 940.2196 939.9126 939.5395 939.1274 938.7064 938.2949 937.9147 937.6093 937.4232 937.3858 937.5128 937.7846 938.1713 938.6341 939.1310 939.6152 940.0455 940.4038 940.6785 940.8638 940.9618 940.9944 940.9884 940.9735 940.9777 941.0214 941.1115 941.2166 941.3150 941.4321 941.6168 941.9606 942.5300 943.3018 944.1962 945.0210 945.5862 945.7584 945.4722 944.8154 943.9066 942.8815 941.8802 941.0478 940.4758 940.1222 939.9254 939.8261 939.7849 939.8087 939.9026 940.0517 940.2388 940.4474 940.6616 940.8665 941.0535 941.2274 941.3962 941.5707 941.7596 941.9658 942.1898 942.4274 942.6705 942.9023 943.1039 943.2315
1040.9756 1043.2018 1046.2632 1049.8180 1053.0094 1055.2305 1056.7288 1057.9149 1059.2714 1061.1414 1063.4985 1066.3004 1069.5994 1073.3429 1077.1952 1080.8538 1084.1886 1087.1183 1089.6146 1091.6565 1093.2213 1094.1071 1093.7200 1091.7446 1088.5789 1084.7137 1080.6412 1076.7377 1073.1381 1069.9014 1066.9926 1064.4731 1062.6185 1061.5991 1061.3293 1061.8154 1063.2958 1065.8469 1069.1874 1072.9701 1076.8009 1080.3649 1083.4995 1085.9806 1087.4448 1087.7009 1086.8853 1085.2648 1083.2725 1081.2631 1079.4298 1077.9302 1076.8876 1076.3954 1076.5026 1077.1432 1078.0736 1079.0094 1079.6323 1079.8760 1080.0671 1080.4261 1080.9619 1081.6865 1082.6428 1083.8418 1085.2429 1086.7969 1088.4471 1090.1412 1091.8333 1093.4775 1095.0273 1096.4067 1097.4990 1098.1593 1098.2094 1097.5032 1095.9442 1093.5460 1090.4669 1087.0779 1083.9984 1081.5187 1079.4994 1077.7902 1076.2629 1074.8680 1073.6477 1072.6024 1071.6788 1070.8593 1070.1689 1069.5721 1068.9617 1068.2257 1067.2552 1066.0106 1064.5321 1062.9521 1061.4944 1060.2648 1059.2393 1058.3666 1057.5770 1056.8827 1056.3774 1056.1079 1056.0686 1056.2471 1056.6249 1057.1719 1057.8455 1058.6021 1059.3989 1060.2225 1061.0869 1062.0089 1063.0066 1064.1017 1065.3195 1066.6842 1068.2183 1069.9048 1071.6926 1073.5121 1075.2771 1076.8755 1078.1787 1079.1398 1079.7810 1080.1333 1080.2214 1079.8835 1078.8142 1076.7885 1073.6797 1069.8428 1065.9899 1062.6731 1060.2920 1058.8962 1058.2786 1058.2408 1058.5870 1059.0055 1059.1255 1058.8901 1058.4731 1058.1641 1058.3011 1058.8817 1059.6633 1060.3164 1060.4629 1059.7964 1058.0718 1055.1949 1051.2062 1046.5773 1042.0304 1038.0619 1035.0035 1032.9500 1031.8401 1031.4786 1031.5795 1031.7264 1031.4344 1030.2800 1027.9351 1024.6461 1020.9918 1017.6168 1015.1669 1013.9756 1014.1515 1015.3106 1016.8178 1018.1351 1018.8160 1018.7580 1018.0380 1016.7596 1015.0384 1012.9818 1010.6971 1008.3180 1005.9857 1003.7953 1001.7933 999.8185 997.6165 994.9632 991.7108 988.1724 984.8142 981.6975 978.6865 975.5212 971.9598 968.2643 964.8722 961.9474 959.5060 957.3415 955.1857 952.9664 950.7029 948.4992 946.4908 944.8060 943.5514 942.7218 942.2669 942.1213 942.2161 942.4959 942.8825 943.1370 943.0049 942.4690 941.6238 940.7241 940.0360 939.5917 939.3335 939.1490 938.9208 938.5994 938.1663 937.6493 937.0900 936.5273 935.9958 935.5138 935.0953 934.7599 934.5264 934.4048 934.3987 934.4935 934.6713 934.9243 935.2507 935.6647 936.1809 936.7975 937.4974 938.2163 938.8847 939.4608 939.9141 940.2288 940.3986 940.4379 940.3685 940.2213 940.0192 939.7485 939.3977 938.9972 938.5839 938.1816 937.8159 937.5280 937.3591 937.3380 937.4800 937.7645 938.1608 938.6312 939.1328 939.6116 940.0209 940.3439 940.5737 940.7155 940.7800 940.7870 940.7576 940.7101 940.6631 940.6378 940.6406 940.6337 940.5909 940.5435 940.5512 940.7247 941.1552 941.8544 942.7578 943.6301 944.2446 944.4734 944.2672 943.7388 943.0204 942.2260 941.4633 940.8317 940.3925 940.1155 939.9592 939.8886 939.8815 939.9443 940.0786 940.2655 940.4844 940.7186 940.9522 941.1710 941.3661 941.5402 941.6989 941.8516 942.0061 942.1658 942.3329 942.5085 942.6888 942.8597 943.0050 943.0950
1036.9469 1039.3337 1042.4106 1045.9104 1049.0735 1051.3448 1052.8969 1054.0552 1055.2407 1056.7687 1058.6567 1060.9084 1063.6022 1066.7101 1069.9271 1072.9711 1075.7067 1078.0496 1079.9833 1081.5071 1082.6332 1083.2158 1082.7604 1081.0256 1078.4178 1075.3843 1072.2784 1069.3744 1066.8040 1064.6405 1062.8751 1061.5211 1060.6567 1060.3031 1060.3552 1060.8597 1062.1810 1064.5088 1067.6344 1071.2433 1074.9084 1078.2723 1081.1261 1083.2390 1084.3140 1084.2404 1083.2479 1081.6454 1079.8184 1078.0674 1076.5364 1075.3373 1074.5533 1074.2467 1074.4470 1075.1134 1076.0946 1077.1486 1077.9113 1078.2772 1078.5566 1078.9602 1079.4940 1080.1871 1081.1261 1082.3424 1083.7787 1085.3707 1087.0532 1088.7679 1090.4658 1092.0995 1093.6223 1094.9556 1095.9762 1096.5331 1096.4434 1095.5900 1093.9476 1091.5920 1088.7246 1085.7051 1083.0734 1081.0518 1079.4529 1078.1040 1076.8844 1075.7498 1074.7427 1073.8722 1073.1022 1072.4149 1071.8160 1071.2688 1070.6865 1069.9823 1069.0731 1067.9233 1066.5527 1065.0603 1063.6240 1062.3269 1061.1459 1060.0488 1059.0024 1058.0507 1057.3142 1056.8564 1056.6785 1056.7626 1057.0748 1057.5745 1058.2145 1058.9436 1059.7084 1060.4934 1061.3181 1062.1907 1063.1090 1064.0906 1065.1716 1066.3915 1067.7892 1069.3556 1071.0375 1072.7622 1074.4399 1075.9618 1077.2068 1078.1138 1078.6731 1078.8953 1078.7957 1078.2184 1076.8782 1074.6042 1071.3488 1067.5215 1063.8639 1060.8584 1058.7651 1057.5645 1057.0353 1056.9911 1057.2649 1057.5613 1057.5173 1057.0912 1056.4762 1055.9644 1055.8865 1056.2532 1056.8484 1057.3478 1057.3639 1056.5808 1054.7501 1051.8513 1048.0419 1043.8364 1039.9460 1036.7795 1034.5415 1033.2729 1032.9080 1033.2820 1034.1508 1035.0525 1035.4086 1034.7485 1032.7196 1029.5089 1025.6285 1021.7856 1018.7516 1016.9003 1016.3408 1016.7410 1017.5453 1018.2904 1018.5920 1018.3169 1017.4681 1016.1110 1014.3425 1012.2656 1009.9872 1007.6235 1005.2877 1003.0370 1000.8823 998.6849 996.2435 993.4144 990.1357 986.7551 983.7456 981.1470 978.7762 976.2352 973.1187 969.6244 966.1860 963.0881 960.5034 958.2753 956.1387 953.9977 951.8438 949.7863 947.9745 946.5151 945.4822 944.8480 944.5512 944.5583 944.8381 945.3093 945.8431 946.1378 945.8802 945.0384 943.7267 942.3234 941.2333 940.5162 940.0994 939.8273 939.5351 939.1519 938.6483 938.0527 937.4112 936.7678 936.1615 935.6105 935.1270 934.7267 934.4251 934.2320 934.1527 934.1782 934.2971 934.5079 934.8127 935.2182 935.7288 936.3325 937.0070 937.7050 938.3751 938.9777 939.4775 939.8433 940.0558 940.1394 940.1292 940.0613 939.9557 939.7693 939.4649 939.0829 938.6768 938.2794 937.9210 937.6393 937.4719 937.4487 937.5868 937.8629 938.2441 938.6948 939.1736 939.6237 939.9958 940.2761 940.4623 940.5672 940.6072 940.6004 940.5620 940.4984 940.4190 940.3499 940.3016 940.2302 940.1060 939.9689 939.8830 939.9464 940.2526 940.8651 941.7516 942.6342 943.2474 943.4723 943.2803 942.8177 942.2348 941.6196 941.0464 940.5786 940.2545 940.0552 939.9557 939.9368 939.9860 940.1055 940.2916 940.5220 940.7747 941.0347 941.2880 941.5209 941.7245 941.9001 942.0523 942.1891 942.3178 942.4417 942.5645 942.6916 942.8224 942.9451 943.0452 943.0823
1032.9805 1035.6113 1038.7112 1042.0293 1045.0365 1047.3441 1049.0405 1050.3274 1051.5017 1052.8109 1054.3438 1056.1647 1058.3375 1060.8359 1063.4202 1065.8606 1068.0250 1069.8312 1071.2793 1072.3882 1073.1903 1073.6008 1073.2745 1072.0540 1070.2631 1068.2361 1066.1963 1064.3228 1062.7314 1061.4963 1060.6212 1060.0883 1059.8522 1059.8595 1060.0492 1060.5164 1061.6588 1063.7094 1066.5237 1069.8417 1073.2667 1076.4324 1079.0543 1080.8687 1081.6355 1081.3137 1080.2068 1078.6466 1076.9515 1075.3632 1073.9944 1072.9305 1072.2314 1071.9355 1072.0499 1072.5598 1073.4188 1074.4567 1075.3168 1075.8639 1076.3285 1076.8732 1077.5109 1078.2875 1079.3145 1080.6273 1082.1416 1083.7783 1085.4792 1087.1917 1088.8678 1090.4598 1091.9188 1093.1620 1094.0605 1094.4784 1094.2761 1093.3773 1091.7913 1089.6106 1087.0313 1084.3751 1082.1077 1080.4185 1079.1432 1078.1177 1077.2078 1076.3549 1075.5880 1074.9144 1074.3105 1073.7637 1073.2758 1072.8142 1072.3070 1071.6829 1070.8756 1069.8495 1068.6046 1067.1909 1065.7095 1064.2233 1062.7520 1061.3215 1059.9680 1058.7692 1057.8424 1057.2449 1056.9705 1056.9899 1057.2537 1057.7108 1058.3092 1058.9908 1059.6941 1060.4097 1061.1755 1061.9954 1062.8407 1063.7181 1064.6681 1065.7461 1067.0164 1068.4794 1070.0776 1071.7305 1073.3385 1074.7883 1075.9595 1076.7858 1077.2469 1077.3345 1077.0403 1076.2390 1074.7185 1072.3771 1069.2273 1065.6592 1062.3333 1059.6396 1057.7430 1056.5933 1055.9861 1055.7496 1055.7305 1055.6782 1055.2935 1054.5594 1053.6653 1052.8838 1052.5199 1052.6002 1052.9500 1053.2457 1053.0762 1052.1265 1050.1711 1047.2611 1043.6512 1039.8925 1036.6853 1034.3439 1032.9329 1032.4253 1032.7352 1033.7147 1035.1549 1036.6021 1037.4716 1037.3097 1035.7788 1032.9307 1029.0811 1024.9690 1021.5161 1019.1749 1018.0914 1017.9596 1018.2461 1018.5368 1018.5030 1018.0045 1017.0063 1015.5468 1013.7026 1011.5748 1009.2759 1006.9230 1004.6222 1002.3779 1000.1368 997.7785 995.1623 992.2369 989.0329 985.8841 983.2089 981.0430 979.2066 977.1936 974.4548 971.1297 967.6464 964.3965 961.6914 959.4095 957.2777 955.1923 953.1389 951.2405 949.6627 948.4981 947.7923 947.4752 947.4467 947.6907 948.2067 948.9026 949.6168 949.9783 949.6025 948.4528 946.6736 944.7381 943.1551 942.0154 941.2526 940.7132 940.2296 939.7089 939.0961 938.4067 937.6799 936.9601 936.2880 935.6801 935.1456 934.6946 934.3373 934.0825 933.9365 933.8952 933.9536 934.1157 934.3875 934.7705 935.2617 935.8434 936.4911 937.1678 937.8337 938.4514 938.9838 939.3924 939.6534 939.8024 939.8881 939.9536 940.0146 939.9886 939.8013 939.4972 939.1406 938.7654 938.4025 938.0950 937.8874 937.8186 937.9116 938.1382 938.4612 938.8483 939.2628 939.6501 939.9629 940.1899 940.3323 940.4059 940.4290 940.4179 940.3828 940.3167 940.2200 940.1255 940.0508 939.9520 939.8009 939.6472 939.5533 939.5781 939.7946 940.3174 941.1526 941.9905 942.5393 942.6965 942.4611 942.0162 941.5311 941.0629 940.6491 940.3227 940.1042 939.9857 939.9558 940.0048 940.1249 940.3112 940.5534 940.8276 941.1121 941.3955 941.6666 941.9125 942.1244 942.3029 942.4515 942.5779 942.6887 942.7869 942.8775 942.9688 943.0633 943.1501 943.2161 943.2339
