NCOLS 331
NROWS 32
XLLCORNER 529102.52992
YLLCORNER 293771.653426
CELLSIZE 100.000000
NODATA_VALUE -9999.000000
282.7128 285.2525 288.9364 293.6997 297.9426 300.7291 302.7411 303.6097 303.7458 303.7072 302.8730 301.0972 298.2046 294.7177 290.5743 286.2150 281.8019 277.4836 273.6806 269.6297 265.3920 260.9858 256.9946 253.1452 249.4925 246.4621 244.0488 241.9608 239.8503 237.6409 235.5816 233.4297 232.1347 231.9141 232.4516 233.5396 235.4203 237.5406 239.8261 242.7025 245.9161 248.6155 250.8456 253.0336 255.3448 257.8712 260.0189 262.1697 264.7097 267.5848 270.8693 274.6024 278.4745 281.9673 286.2886 291.2805 295.7916 300.2179 304.5842 308.3083 311.6766 314.3233 315.8238 316.4017 315.4679 312.9875 310.1732 306.5495 301.9985 296.7096 290.4720 284.6450 279.5934 275.3267 271.0921 267.5015 264.9652 263.5338 262.4788 261.8415 261.3475 261.0109 260.9167 260.6915 260.6746 260.9451 260.9387 261.1376 261.3268 260.5693 259.3315 258.2045 257.4269 256.7465 255.7977 254.8640 253.9960 252.8817 251.7203 250.4481 249.3463 248.6366 248.5419 249.1171 250.2181 251.8817 253.7764 256.0479 258.5632 260.7317 262.0350 262.4386 262.0942 261.2950 260.2932 259.8919 260.2946 261.0046 261.5191 261.4694 260.9848 260.6071 260.9131 262.1843 264.8383 267.3752 269.4832 271.3817 273.1106 275.2856 278.2874 281.7558 285.3497 288.2143 290.9803 293.6795 296.1075 298.0134 300.4789 302.1191 302.9534 303.6727 303.6236 302.4432 301.0311 300.1109 299.8165 299.4876 299.2313 299.0283 300.3131 302.1827 304.1864 306.4048 308.3059 310.1893 312.0340 313.8728 316.0354 317.8621 319.3387 319.6137 319.3492 318.6001 317.5001 315.8083 314.5428 313.4266 312.4488 311.5269 310.3911 308.9487 307.7540 306.8858 306.4178 306.2709 306.3666 306.3455 306.8195 307.3409 307.6644 308.1091 307.9228 307.0259 306.2860 305.5166 304.7836 303.7714 302.6113 301.3885 300.0338 298.5607 297.0891 296.2830 296.0987 296.7654 298.3313 300.5040 303.1102 306.2659 309.8046 314.2323 319.5081 325.2524 330.9528 336.3921 340.9472 344.1490 345.9342 346.9234 347.5313 347.5848 347.0750 345.8943 344.3647 342.6022 340.8003 338.6536 335.7701 332.1574 328.3968 325.2936 322.8456 320.8455 319.1884 317.7964 316.5923 315.2585 313.6013 311.9075 310.1943 308.7507 308.4736 308.7470 308.4956 308.0078 307.6339 307.6538 308.6851 310.2118 312.3427 315.1033 318.0587 321.3224 325.0387 328.5740 331.9013 334.9511 337.1778 338.5876 339.3141 339.5090 339.2911 338.6770 337.9988 337.0529 335.9013 334.5992 333.1287 331.5400 329.7346 327.7068 325.4501 322.7888 320.1140 317.7332 315.5325 313.5006 312.0766 310.6960 308.6962 306.5191 304.3293 302.4232 300.7585 299.4171 298.6556 298.0323 297.5654 297.6497 298.0182 298.1148 298.3732 298.8660 299.5708 300.4009 301.3686 302.4459 303.1135 303.2465 303.1702 302.9338 302.2897 301.2480 300.0456 298.6445 297.3549 296.2758 295.3102 294.5569 293.8494 293.1303 292.5044 292.0246 291.6575 291.5614 291.7933 292.1422 292.4182 292.4667 292.4004 292.3643 292.2426 292.0062 291.5462 290.9215 290.3616 289.8170 289.2652 288.5316 287.6146 286.4411 284.9513 283.2924 281.5244 279.7979 278.1409 276.7493 275.8578 275.0903 274.3977
282.9648 285.5122 288.9333 293.5795 297.9225 300.7961 302.4953 303.1650 303.5687 303.5279 302.5607 300.7644 298.2322 294.8249 290.5379 286.1298 281.6301 277.2104 273.7292 270.1199 265.9637 261.7929 257.5534 253.5428 250.1631 247.2276 244.8156 242.9035 240.9842 238.8047 236.4972 233.8392 232.0956 231.7893 232.5568 233.8946 236.0000 238.2963 240.6852 243.4496 246.5994 249.6368 252.3540 254.8791 257.5633 260.1320 262.3763 264.5885 267.0020 269.7798 272.7311 276.3619 280.3276 283.5804 287.7338 292.6893 297.0144 301.9277 306.2893 310.0672 313.2047 315.6482 317.0867 317.4883 316.0510 313.3662 310.6703 307.3540 302.5905 296.6679 290.3647 284.4776 279.6973 275.4147 271.0902 267.4913 265.4472 264.5560 263.9887 263.4016 262.7803 262.3430 261.9309 261.5669 261.0392 260.6319 260.4367 260.5152 260.9128 260.7727 260.0766 259.1152 258.3397 257.7199 256.8346 255.7564 254.5695 253.3473 251.8560 250.4675 249.3542 248.4613 248.3593 248.5414 249.4662 250.8423 252.5533 254.5134 256.4768 258.3035 259.6824 260.1407 259.8774 259.3875 259.0570 259.1736 259.6282 259.8247 259.6160 258.8936 258.4397 258.3180 258.7447 260.1510 262.5911 265.0889 267.6283 270.2068 272.5068 274.7420 277.5313 281.1376 284.9427 287.9254 290.6742 293.4734 295.8542 297.9950 300.7086 302.9606 304.3188 305.8911 306.1150 305.2906 303.7985 301.9146 300.7938 300.0822 299.6331 299.5989 300.4607 301.5410 303.0681 305.3058 307.1871 308.7961 310.5830 312.8963 315.1866 317.0909 318.3488 318.7794 318.7142 318.4258 317.4129 315.9172 314.6919 313.7780 312.8521 312.1265 311.1599 309.9454 308.7437 307.7748 307.4275 307.3916 307.3436 307.3880 307.3503 307.3542 307.1967 307.2116 306.9242 306.1745 305.0669 303.7764 302.5840 301.1890 299.6222 298.2837 297.1156 296.0941 295.2169 295.1619 295.7533 296.8334 298.7329 301.3192 304.4774 307.8554 311.6067 315.8799 320.7765 326.1836 331.5087 336.3196 340.4763 343.4286 345.4571 346.6859 347.1216 347.0078 346.3708 344.9271 342.9305 340.7523 338.6891 336.4923 333.9721 330.8925 327.4519 324.1960 321.7518 319.7107 318.1154 316.5966 314.6691 312.6523 310.8918 309.1920 307.7292 306.8413 306.9463 307.3558 307.7491 307.5585 307.5158 308.0658 309.3694 311.4562 313.9735 316.8503 320.3566 324.2450 328.0106 331.5707 334.5903 336.9311 338.6466 339.5605 339.8686 339.6974 339.1584 338.2433 337.3028 336.2449 334.9406 333.6152 332.1275 330.6113 328.9378 326.9919 324.7199 322.1588 319.5569 317.2719 315.1906 313.1824 311.5992 310.1422 308.3366 306.0903 303.7948 301.7112 299.9069 298.5223 297.6856 297.2223 297.0487 297.4807 298.0969 298.4912 298.7638 299.1211 299.7299 300.4670 301.3118 302.2656 302.9275 303.1292 303.0283 302.7669 302.0793 301.1730 300.0368 298.6918 297.5565 296.6499 295.8660 295.2901 294.6584 293.9344 293.3052 292.8093 292.4939 292.5134 292.7932 293.1223 293.2770 293.1948 293.1062 293.1189 292.9785 292.5942 291.8980 291.0978 290.3990 289.6365 288.8824 287.9895 286.8151 285.4915 284.0109 282.2996 280.5220 278.6725 276.9756 275.5718 274.6762 273.9329 273.3108
282.8070 285.6836 289.3005 293.7585 297.8173 300.4787 302.0528 302.9841 303.5195 303.5162 302.5104 300.3103 297.1722 293.7141 289.4550 284.7854 279.7061 275.1761 272.3621 269.6554 265.8359 261.6176 257.4383 253.6767 250.6394 248.1062 245.5942 243.6301 241.8709 239.6585 237.1271 234.3030 232.2315 231.7832 232.6786 234.2681 236.1620 238.4082 240.7900 243.3952 246.6222 249.9404 253.3287 256.7279 259.6114 262.1610 264.5460 266.8846 269.2718 271.6960 274.4421 278.1748 282.4242 285.7374 289.1544 292.9792 297.6232 302.4016 306.8102 310.1689 313.1768 315.9643 317.5804 317.2006 315.7315 313.6365 311.3540 308.0926 303.4641 297.7301 291.4214 285.6050 280.7159 276.2431 271.9164 268.6676 266.7448 266.0103 265.2910 264.6460 264.3254 264.0500 263.4744 262.6021 261.5017 261.0321 260.8840 260.9308 261.2999 261.3457 260.9130 260.3301 259.4820 258.6814 257.6714 256.3242 254.8654 253.2542 251.6760 250.6407 249.7444 249.0852 248.6034 248.5367 249.2048 250.3004 251.2345 252.5948 254.2838 255.8599 257.0218 257.5989 257.7948 257.9417 258.1118 258.4427 258.7411 258.6160 257.6997 256.8147 256.1800 255.8889 256.5741 258.0356 260.0222 262.5936 265.4111 268.3493 271.1860 273.6262 276.4173 280.1175 283.7301 286.6256 289.5233 292.1134 294.4505 297.0956 300.3229 303.0921 304.9809 306.4852 307.3450 306.9841 305.5193 303.2689 301.2878 300.0124 299.4024 299.5385 299.9140 300.2999 301.4724 303.3248 304.9701 306.5819 308.4769 310.7818 312.9562 314.8409 316.4729 317.2709 317.7005 317.4821 316.8824 316.0258 314.9623 313.9112 313.0585 312.3581 311.4529 310.6523 309.7063 308.2945 307.6386 307.4742 307.5221 307.6573 307.3200 306.7680 306.4662 306.1963 305.5627 304.5893 303.1713 301.4993 300.1697 298.6171 296.9760 295.7882 294.8598 294.1944 294.1686 294.7187 295.8824 297.5523 299.6681 302.7875 306.4250 310.1735 314.1401 318.6447 323.4331 328.3072 332.7758 336.7774 340.2249 342.9319 344.9643 346.0681 346.2359 345.9056 344.8456 343.1825 341.1049 338.7857 336.3659 333.9855 331.8468 329.3285 326.1151 323.0161 320.4733 318.4149 316.5369 314.6931 312.6399 310.2826 308.3202 306.4296 305.1331 304.9696 305.3881 305.9615 306.6879 306.9911 307.3061 308.1318 309.5372 312.0377 315.2229 318.3535 322.0932 326.3210 330.1984 333.7883 336.4393 338.2677 339.5696 340.1450 340.1795 339.6400 338.6657 337.5141 336.3954 335.1143 333.7477 332.3481 330.8654 329.3674 327.7928 326.0714 323.9065 321.4005 319.0036 316.7319 314.6964 312.7812 311.0932 309.6283 307.8489 305.6143 303.2866 301.1564 299.1938 297.7149 296.8764 296.5558 296.7203 297.3465 298.0863 298.5564 298.8623 299.1697 299.7185 300.3741 301.1430 301.9637 302.5950 302.9362 303.0195 302.6915 302.0321 301.1028 299.8743 298.6513 297.7561 297.0588 296.4317 295.9453 295.3966 294.7911 294.2144 293.7550 293.6205 293.7049 293.9456 294.1593 294.1575 294.0526 293.9935 293.8587 293.5459 292.9117 292.0176 291.1758 290.2430 289.3133 288.2785 287.0950 285.7874 284.4542 282.9571 281.2106 279.3262 277.5970 275.9674 274.5943 273.7050 273.0874 272.5098
282.7933 286.2701 290.0764 293.9452 297.4112 299.5415 301.0385 302.4762 303.4019 303.3812 302.0191 299.4064 295.8066 291.9442 287.5218 282.5490 277.2007 272.4796 269.7440 267.5657 264.5990 260.5630 256.8328 253.9205 251.5072 248.9854 246.2776 244.1662 242.3623 240.2783 237.8973 234.9760 232.7439 232.0441 232.6819 234.1059 235.9209 237.9362 240.1603 243.0760 246.5740 250.3273 254.2222 257.9964 260.8816 263.3603 265.4856 267.8247 270.2499 273.0676 275.9995 279.8345 284.0257 287.4210 290.0341 293.4179 297.5788 302.1346 306.1956 309.8579 312.8872 315.2106 316.7432 316.7795 315.7816 314.1373 311.4713 308.1298 303.9207 298.8174 293.1841 287.6537 282.4858 277.7496 273.8912 270.7718 269.0297 267.8535 266.8134 266.1861 265.7811 265.2484 264.5357 263.4285 262.4670 262.0008 262.0434 262.2272 262.2644 261.8742 261.6801 261.3261 260.4048 259.3134 257.9294 256.2433 254.6727 253.0431 251.9232 251.0726 250.4846 249.9925 249.3688 249.1163 249.2650 249.7069 250.4511 251.2338 252.5546 253.6724 254.8757 255.8011 256.4193 256.7922 256.9743 257.2459 257.4881 256.8589 255.9063 255.0546 254.4352 254.1940 255.0104 256.4245 258.2144 260.5847 263.6398 266.6168 269.2790 271.8489 274.9957 278.7119 281.8483 284.8097 287.6658 289.8023 292.6630 296.2156 299.6638 302.6476 304.8719 306.2579 307.1473 307.3989 306.0505 303.9096 301.7182 299.9948 299.1757 298.9418 299.0085 299.1200 299.6909 300.8251 302.2904 304.0710 305.6576 307.6118 309.7641 312.1063 314.1368 315.4734 316.3334 316.6318 316.1706 315.4214 314.4226 313.4679 312.7235 312.1822 311.4311 310.6886 309.8126 308.5597 307.5566 306.9623 306.7489 306.7859 306.6305 305.8042 305.0107 304.4866 303.8271 302.6435 300.8754 298.6162 297.1729 295.6593 294.2517 293.4980 293.0001 293.0196 293.4257 294.3297 295.9514 297.6801 300.2887 303.9308 308.1673 312.6489 317.3130 321.9568 326.6725 331.0665 335.0166 338.3363 340.7191 342.7085 344.1847 344.9624 344.8546 344.1284 342.7474 340.9883 339.0276 336.7150 334.0943 331.4833 329.3968 327.3749 324.4559 321.4616 319.0085 317.0961 314.8130 312.4853 310.0664 307.8887 305.8616 303.9851 302.8930 302.8080 303.5759 304.7001 305.8056 306.3828 306.5480 307.4793 309.2436 312.1799 315.5054 319.3262 323.5201 327.7740 331.6007 335.0414 337.6633 339.4457 340.2333 340.5199 340.2325 339.4556 338.2091 336.9860 335.5540 334.2217 332.6766 331.1094 329.6662 328.2022 326.7497 325.1313 323.1345 320.7860 318.4317 316.0838 314.0540 312.2632 310.5240 308.8915 307.1687 305.0711 302.8763 300.5799 298.5959 297.1672 296.3055 296.0546 296.3266 296.9503 297.7234 298.2779 298.5860 298.9510 299.5524 300.2274 300.9195 301.7126 302.3303 302.8461 302.9327 302.5124 301.8349 300.8430 299.6827 298.7270 298.0548 297.4852 297.0774 296.6181 296.1416 295.6605 295.2292 294.9679 294.9217 295.0321 295.1791 295.2379 295.2283 295.1032 294.8256 294.4600 293.9075 292.9717 292.0670 291.1086 290.0114 288.7622 287.5566 286.2862 285.0151 283.5899 281.9966 280.2589 278.3977 276.6650 275.1631 273.8510 273.0441 272.4089 271.9577
283.6107 287.1001 290.8976 294.4711 297.4521 299.2298 300.6887 301.8505 302.6153 302.3742 300.9001 298.2180 294.3414 290.3270 285.7191 280.2295 274.8252 270.1630 267.1557 264.7993 262.6075 259.5850 256.3017 253.6893 251.7658 249.5564 246.8600 244.7140 242.8443 240.9118 238.6342 235.7124 233.4521 232.6582 232.8546 233.6794 235.1357 237.0768 239.3744 242.5393 246.4715 250.3360 254.2103 257.8741 260.8629 263.2305 265.1048 267.4089 270.0313 273.4007 277.2551 280.7483 284.1262 286.9879 290.1110 293.6784 297.6102 301.9545 306.0560 310.0472 313.1308 315.4195 316.4122 316.5607 315.7931 314.5781 312.1964 308.4201 304.2731 299.5948 295.1015 290.5028 285.6060 280.8534 276.7914 273.8870 271.9456 270.5801 269.2185 268.0732 267.0047 266.2559 265.5483 264.5980 263.7493 263.3092 263.4960 263.6517 263.4842 262.8525 262.3354 261.7397 260.5407 259.1317 257.4432 255.7999 254.2473 253.2034 252.4662 251.8093 251.3507 250.9933 250.6034 250.2527 250.0453 250.1791 250.5447 250.9019 251.7338 252.7634 253.7209 254.5635 255.2149 255.6122 255.6653 255.7574 255.4942 254.8191 254.1179 253.5028 253.0819 253.1630 254.1385 255.4667 257.3160 259.8151 262.5655 265.1698 267.6533 270.0448 273.5109 276.6874 279.7305 282.9162 285.4166 287.8859 291.3395 295.4862 299.3399 302.1995 304.4646 305.6195 306.2780 306.2007 305.4272 303.8836 301.6284 299.6909 298.8512 298.2089 297.6836 297.4310 297.6421 298.1846 299.4278 300.5876 302.2129 304.3399 306.5805 309.0141 311.3370 313.3886 314.9360 315.3592 315.2449 314.6506 314.2409 313.4777 312.7393 312.4107 311.6960 310.6495 309.4005 308.2172 307.1528 306.5208 305.9105 305.2332 304.8510 304.3654 303.2180 302.5501 301.7804 300.4683 298.6161 296.2620 294.1025 292.5751 291.4937 291.2207 291.3951 291.9316 292.5129 293.9069 295.6725 297.8759 300.9627 304.8141 309.5127 314.6170 320.0432 325.2271 329.7241 333.8865 337.4737 339.9736 341.4920 342.8497 343.6967 343.9579 343.3319 342.1170 340.3713 338.4845 336.5338 334.3412 331.8455 329.2551 326.9422 325.0283 322.5977 319.7830 317.1812 315.0823 312.9806 310.4187 307.6705 305.2154 303.1602 301.9541 301.3449 301.2773 301.9371 303.4043 304.6803 305.4959 305.7917 306.6645 309.0638 312.1964 316.0348 320.5279 324.9307 329.1544 332.9244 335.9266 338.3548 339.8753 340.4551 340.4116 340.1350 339.2417 338.0574 336.6674 335.1967 333.5491 331.8116 330.1270 328.5356 327.2016 325.8314 324.2794 322.3289 320.1716 317.9432 315.6510 313.3800 311.3534 309.6360 307.9798 306.1544 304.2675 302.0567 299.7784 297.9086 296.5629 295.8406 295.6507 295.9099 296.5222 297.2371 297.8088 298.2086 298.7553 299.3770 300.0120 300.6683 301.4447 302.1303 302.5551 302.4639 302.0267 301.3062 300.4683 299.5766 298.8868 298.3572 298.0569 297.8005 297.4410 296.9934 296.6453 296.4461 296.4435 296.4695 296.4946 296.5199 296.5852 296.5601 296.1691 295.5805 295.0030 294.1563 293.1057 292.0793 291.0081 289.7844 288.5109 287.2066 285.8659 284.3793 282.8535 281.1950 279.3916 277.6417 275.9431 274.4463 273.2021 272.3439 271.8485 271.4199
284.9418 288.3177 291.5981 294.8681 297.6330 299.5709 300.6275 301.2380 300.9854 300.5761 298.8711 296.0147 292.4750 288.2831 283.3248 277.9131 272.6239 268.2883 265.1197 262.8101 260.8339 258.4124 255.9607 253.8377 252.0200 249.9093 247.5006 245.5363 243.7297 241.7396 239.2074 236.3858 234.4605 233.5372 233.4568 233.8817 234.8466 236.7663 239.3741 242.5011 245.9307 249.4585 253.1438 256.7568 259.6694 262.2950 264.3140 266.3076 268.9821 273.1051 277.2713 280.1302 282.4022 285.2988 288.7507 292.7410 296.9862 301.4427 305.9116 310.0839 313.6236 316.1072 316.6995 316.3040 315.3530 314.2644 312.2857 309.3140 305.1372 300.8915 296.9632 293.4075 289.3929 284.9030 280.8350 277.7479 275.3778 273.6159 271.9504 270.1554 268.5079 267.4569 266.8193 266.1681 265.3248 264.9546 264.9361 264.7371 264.2566 263.2921 262.2400 261.2875 259.9908 258.3472 256.6985 255.3003 254.3873 253.8194 253.3638 252.9036 252.4847 252.2659 252.1001 251.8610 251.6503 251.5415 251.4795 251.3589 251.6224 252.2480 252.9650 253.5550 254.0930 254.1736 254.0107 253.6974 253.3905 252.8876 252.5855 252.1388 251.9296 252.5454 253.5529 254.8550 256.9908 259.6167 261.7207 263.7292 265.8326 268.4586 271.5571 274.0693 277.2385 280.7742 283.5269 286.4330 290.2689 294.5358 298.4805 301.3994 303.4278 304.7703 305.0440 304.7230 304.0858 302.7166 301.0375 299.3502 297.4546 296.2303 295.3201 294.6662 294.5455 294.6674 295.3392 296.4884 298.4828 300.8375 303.2205 305.7336 308.2041 310.6676 312.5353 313.2776 313.5148 313.6672 313.7879 313.5407 313.1078 312.5681 311.6151 310.1972 308.9310 307.7962 306.9937 306.2766 305.3425 303.9458 302.9309 301.9537 300.8993 300.0662 299.2990 298.2626 296.7828 294.4871 291.8948 290.1515 289.3296 289.1189 289.7219 290.2789 291.1943 292.9350 294.9624 297.6971 301.1568 305.3587 310.1269 315.5981 321.6480 327.2661 331.9467 335.7089 338.7546 340.8435 342.0685 342.7246 343.0064 342.5149 341.4115 339.7474 337.5986 335.5557 333.4924 331.4644 329.2877 326.9926 324.7561 322.8169 320.4933 317.5593 314.9622 312.6911 310.5405 308.1015 305.4669 302.9629 301.0351 300.2179 300.1136 300.5645 301.1530 302.3586 304.0239 305.1412 305.9516 306.9621 309.1473 312.6245 317.1008 322.0926 326.5927 330.6539 334.1772 336.9303 338.8297 340.0388 340.4641 340.5181 340.0115 339.1460 337.9880 336.6117 335.0141 333.2560 331.2577 329.3812 327.7246 326.4007 325.0802 323.4926 321.7061 319.7896 317.7266 315.4799 313.1255 310.7760 308.8203 306.9621 305.1335 303.1299 300.9281 298.8642 297.2055 295.9926 295.3825 295.2746 295.6343 296.3571 297.0299 297.5425 298.1674 298.7767 299.3001 299.9052 300.4373 301.0077 301.6116 301.8407 301.7078 301.2949 300.7212 300.0826 299.5020 299.0540 298.8868 298.9274 298.8355 298.5488 298.1289 297.9835 298.0862 298.2733 298.3783 298.4305 298.4487 298.3922 298.1788 297.5217 296.7089 295.7578 294.5838 293.4580 292.3270 291.0842 289.7750 288.4856 287.2148 285.7036 283.9923 282.2648 280.5332 278.7813 277.1584 275.5529 274.0175 272.8285 271.9957 271.4008 271.0484
286.4157 289.3748 292.2859 294.9218 297.6725 299.2672 299.6654 299.5548 298.9608 297.7609 295.7823 292.8254 289.1742 285.0552 279.9801 275.0002 270.5334 266.3591 263.2634 261.0886 259.4003 257.6888 255.8631 254.0224 252.5248 250.9107 248.6474 246.7777 244.9941 242.6989 240.1099 237.3593 235.5421 234.6229 234.1425 234.3589 235.3397 237.0984 239.5236 242.2060 245.2641 248.3268 251.7360 255.3337 258.6013 261.1153 263.3232 265.1505 267.9187 271.7777 275.3437 278.0504 280.3697 283.5614 287.5895 291.6813 295.7871 300.3582 305.1472 309.1800 312.8151 315.2533 316.0944 315.5727 314.5865 313.4223 311.7422 309.6160 306.4367 302.7569 299.1950 295.9401 292.7572 289.0756 285.0611 281.4012 278.6722 276.5484 274.3572 272.3383 270.4442 269.3156 268.5685 267.8387 267.0919 266.7255 266.4175 265.9077 264.8607 263.4891 261.8188 260.7643 259.4872 257.7342 256.3075 255.3950 255.1464 254.9279 254.7368 254.3743 253.9534 253.9047 253.9234 253.8011 253.7252 253.5653 252.9837 252.5086 252.2533 252.0834 252.2982 252.5192 252.6275 252.4882 252.0302 251.5422 251.2851 251.3358 251.2297 251.0520 251.2715 251.9768 253.0374 254.6605 257.0474 259.1531 260.6172 261.9484 263.9118 266.2001 268.6244 271.1901 274.5461 278.2046 281.8062 285.2662 289.2605 293.2922 297.2207 299.8450 301.8535 302.9915 303.0241 302.5123 301.6949 300.1371 298.7724 297.4485 295.2530 293.3164 292.3980 291.3240 290.9850 291.1970 291.7949 292.9946 295.2579 298.0117 300.8407 303.3936 305.7966 308.1752 310.1302 311.4528 312.1849 312.6823 313.0331 313.1602 313.1685 312.5607 311.0449 309.3628 308.1974 307.3265 306.4349 305.4347 304.2681 302.6527 300.8381 298.9627 297.7339 296.8618 295.9361 295.3493 294.4823 292.6603 290.3415 288.5934 287.5282 287.4146 288.1189 289.1293 290.5602 292.4880 294.9031 297.8686 301.4481 305.8162 310.6978 316.3831 322.4524 328.0723 332.6459 336.2523 339.1213 340.9054 341.7031 341.8730 341.4880 340.4089 338.8685 336.8873 334.6119 332.3994 330.4080 328.3970 326.5107 324.6487 322.6084 320.5899 318.2915 315.0121 312.0465 309.8167 307.8596 305.5822 303.1470 301.1499 299.6940 299.0696 299.2032 299.9519 300.5916 301.8193 303.7497 305.4472 306.7022 308.2126 310.5121 313.9380 318.2141 323.2118 328.1125 332.1778 335.3512 337.7548 339.4269 340.4498 340.9605 340.8435 340.2130 339.3654 338.2259 336.8034 335.0489 333.1363 331.0926 329.0586 327.2576 325.8560 324.5717 323.0346 321.3669 319.6089 317.6467 315.4238 313.0063 310.6448 308.3303 306.2019 304.0927 301.8917 299.7226 297.9632 296.4920 295.4552 294.9441 294.9988 295.6762 296.5003 297.2142 297.8373 298.4882 299.1153 299.5879 299.9765 300.1693 300.4430 300.8164 300.9423 300.7929 300.4758 300.0382 299.5589 299.2851 299.3019 299.5681 299.8356 299.9643 299.7363 299.4920 299.6240 299.9383 300.3028 300.5909 300.7083 300.6581 300.4349 299.9500 299.0715 298.0124 296.6660 295.3391 294.1035 292.8029 291.4319 290.0428 288.6656 287.2604 285.6643 283.7629 281.8970 280.1201 278.5060 276.8937 275.3067 273.9120 272.9230 272.0898 271.4204 270.9235
287.2254 290.0143 292.8528 295.2278 297.3071 298.2373 298.0009 297.2354 296.0650 294.4211 292.0966 288.8645 285.3044 281.5526 276.8460 271.9746 267.7268 264.1826 261.6462 259.6696 258.1470 256.8554 255.5854 253.9277 253.0311 251.8632 249.9432 248.0730 246.0271 243.5405 241.0072 238.4693 236.7328 235.7674 235.2729 235.2696 236.0706 237.4297 239.3948 241.9920 244.6862 247.2717 250.7239 254.5142 257.4689 259.9209 261.6852 263.5092 266.0276 268.9586 272.0472 275.2902 278.6543 282.2412 286.3942 290.5975 294.2975 298.8945 303.8546 307.7232 310.7130 312.9983 314.3306 314.3387 313.7375 312.8658 311.2474 309.5621 307.2634 304.5093 301.6060 298.8605 296.0448 292.5804 288.9007 285.2919 282.4549 279.6760 277.1465 275.0697 273.3143 272.2226 271.1171 270.0344 269.0939 268.4727 267.8784 266.8272 265.4856 263.6404 261.6848 260.2462 258.6089 257.2279 256.4401 256.1749 256.3859 256.5953 256.5445 256.2989 255.9895 256.1860 256.3175 256.0410 255.9270 255.6914 255.0620 254.2054 253.2663 252.2926 251.8994 251.7386 251.3233 250.9160 250.6603 250.3002 250.1175 250.1560 250.2144 250.4032 250.7850 251.3949 252.5742 254.3802 256.4542 258.1624 259.2503 260.2079 262.1241 264.0346 266.2238 269.1182 272.5370 276.6324 280.7662 284.6340 288.1275 291.7177 295.2093 297.6140 299.4526 300.1523 300.0622 299.5287 298.2614 296.8409 295.3658 293.9813 292.2238 290.5705 289.2024 288.0325 287.7506 288.3371 289.1470 290.3084 292.6537 295.8817 298.9805 301.7288 304.1469 306.4306 308.5584 310.1277 311.2099 311.9055 312.3126 312.7255 312.9347 312.2692 310.5317 308.7865 307.3735 306.2109 305.3154 304.1158 302.5793 300.9013 298.9528 296.9084 295.0878 293.6359 292.6226 292.2525 291.8846 290.4505 288.5899 287.0153 286.3605 286.6290 287.4168 288.7691 290.6790 293.1131 295.8019 299.0027 302.8104 307.1912 312.5336 318.2096 323.8844 328.8278 332.9878 336.3787 338.7542 340.4338 340.6938 340.3079 339.6736 338.2624 336.1515 333.7931 331.3687 329.2850 327.2114 325.1584 323.2413 321.6401 319.6280 317.7167 315.3338 312.2271 309.2009 306.8187 304.8977 302.8868 300.9754 299.4204 298.2044 297.8360 298.0455 298.8524 299.9149 301.2978 303.5056 305.8970 307.7965 310.1635 312.9144 316.2195 320.1697 324.7359 329.3793 333.2687 336.1593 338.5402 340.2366 341.3549 341.8401 341.5858 340.8634 339.9687 338.6836 337.1812 335.1608 333.1771 331.1668 329.0554 327.1895 325.6377 324.2352 322.6982 321.0316 319.2675 317.2791 314.9713 312.6674 310.3084 307.8019 305.3899 303.0991 300.7766 298.7156 297.0519 295.8252 295.0238 294.7182 294.9248 295.7545 296.6887 297.4949 298.2978 298.9858 299.5608 299.9448 300.0432 300.1082 300.2391 300.2501 300.2597 300.1273 299.7035 299.3000 299.1765 299.3510 299.8743 300.4542 300.7759 300.7849 300.7515 300.9189 301.2667 301.6862 302.1958 302.6826 302.9092 302.7742 302.3619 301.6352 300.6938 299.3303 297.8005 296.3990 294.9013 293.4051 291.9203 290.4670 289.0457 287.4962 285.6429 283.7354 281.8170 279.9977 278.3375 276.7021 275.2207 274.0311 273.1527 272.3652 271.6389 271.0347
288.0804 290.5588 292.7591 294.2983 295.5828 296.2708 295.4490 293.8207 292.0179 290.3532 288.1587 285.1266 282.2603 278.6395 274.3279 269.6172 265.5796 262.3748 259.9225 258.1423 256.7319 255.6982 254.8801 254.0792 253.7281 252.4178 250.6015 249.0046 246.9368 244.3107 241.6345 239.1321 237.5121 236.7987 236.5251 236.4330 236.8125 237.8481 239.7034 241.9921 244.2817 246.7274 249.9777 253.3846 255.9444 258.1642 259.8227 261.4954 263.4691 265.9609 268.9049 272.8792 277.1764 280.9150 284.7020 288.6188 292.6114 296.8195 301.1230 305.0485 307.9879 310.1873 311.3380 312.1582 312.1978 311.8661 311.1625 309.5283 307.7653 305.8988 303.9587 301.9013 299.1934 296.0456 292.7334 289.5310 286.7095 283.6685 280.5522 278.1121 276.5937 275.3240 274.0211 272.5248 271.0559 269.8568 268.6136 267.1569 265.5174 263.3315 261.3584 259.4858 257.8955 257.0760 257.1345 257.7996 258.2591 258.5594 258.5357 258.4426 258.7070 259.0905 259.1288 258.6249 258.1982 257.8675 257.2636 256.3370 254.7689 253.3005 252.1518 251.5444 250.9473 250.4092 250.2356 249.7532 249.4760 249.5387 249.7034 249.9784 250.1512 250.7305 251.9337 253.6020 255.2060 256.4509 257.5658 258.8327 260.5638 262.4035 264.6739 267.2860 270.8921 275.2315 279.2400 282.4915 285.8737 289.3181 291.8760 293.9646 295.8316 296.5567 296.6343 295.6874 294.3872 292.7732 291.1892 290.0683 288.6369 287.2866 286.0360 285.1420 285.0850 285.8003 287.0826 288.7875 291.4711 294.8117 297.8247 300.5411 303.1564 305.6860 307.6741 309.1937 310.3851 311.1160 311.6335 311.9720 312.1850 311.6601 310.0664 308.0627 306.1153 304.4627 303.2330 301.9081 300.3158 298.6840 297.0994 295.1882 293.3733 291.4866 290.0438 289.4166 289.1789 288.0545 286.6554 285.3159 284.9599 285.4920 286.6394 288.4977 290.6790 293.4214 296.6563 300.3740 304.5125 309.2523 314.7873 320.4348 325.6195 329.9913 333.5054 336.1875 338.0732 339.3527 339.4512 338.8748 337.7956 335.9139 333.2736 330.5974 328.1185 326.0519 323.9120 321.7367 319.8699 318.0976 316.2089 314.2699 311.9701 309.2060 306.3182 303.9468 301.8906 300.3017 299.1015 298.1667 297.2505 297.0471 297.6346 298.6944 300.0220 301.6364 303.8053 306.3956 309.1931 312.2517 315.7317 319.3246 323.2571 327.3683 331.2563 334.5808 337.4202 339.7898 341.3553 342.3013 342.7014 342.5638 341.9831 340.7767 339.3125 337.4908 335.3508 333.2734 331.1967 329.1668 327.2876 325.5534 323.8962 322.2797 320.6378 318.8972 316.8436 314.4948 312.1107 309.6287 307.0978 304.5934 302.0779 299.8492 297.9458 296.3305 295.2810 294.8014 294.7019 295.0459 295.8852 296.8601 297.7827 298.6505 299.2933 299.7865 300.0438 300.1478 300.2264 300.1874 299.9314 299.7061 299.4881 299.1303 298.8298 299.1222 299.9087 300.7407 301.3954 301.6510 301.8562 302.0503 302.3309 302.7691 303.3780 303.9669 304.4948 304.8335 304.7657 304.0983 303.3060 302.3250 300.9484 299.4093 297.8105 296.0698 294.2383 292.5505 291.0607 289.5176 287.7381 285.7801 283.8057 281.8695 280.0195 278.3615 276.7534 275.3568 274.3015 273.5672 272.7533 271.9720 271.3077
288.9132 290.8309 292.1286 292.8615 293.1736 293.1843 292.1036 290.1740 288.1109 286.4145 284.6901 281.9012 278.7217 275.3719 271.4413 267.5054 263.7283 260.6616 258.1880 256.5338 255.3268 254.9134 254.5027 254.2754 254.2303 252.9297 250.8147 249.0246 247.0654 244.8456 242.2036 239.6587 237.8788 237.2858 237.3527 237.2879 237.2500 238.1440 239.7681 241.6683 243.9082 246.5642 249.4049 252.1355 254.4125 256.3423 258.0865 259.7377 261.6548 264.4168 267.5887 271.7488 276.0386 279.7191 283.1371 286.5089 289.7906 293.7166 297.8567 301.5073 304.4209 306.3430 307.5161 308.5119 309.6607 310.2830 310.4508 309.5689 308.2198 306.8896 305.3796 304.0307 302.0433 299.2552 296.7090 293.9679 290.9292 287.6574 284.3607 281.6917 279.7960 278.3717 276.6609 274.8008 272.7646 270.6475 268.7427 266.7193 264.6186 262.6120 260.6413 258.8609 257.8765 257.7877 258.3446 259.4268 260.3134 260.7325 260.6040 260.6553 261.7449 262.4425 262.3839 261.8558 261.1823 260.4731 259.7800 258.6152 256.6358 254.4315 252.9350 252.0625 251.3483 250.5046 250.0966 249.8309 249.5593 249.4140 249.5540 249.6471 249.7283 250.1737 251.3346 252.6295 254.0098 255.0325 256.2202 257.6721 259.2736 261.0737 263.2323 265.8219 269.3176 273.1377 276.5132 279.6397 282.9115 285.6952 287.9126 289.6942 291.4962 292.4387 292.2640 291.1622 290.0313 288.3487 286.8985 286.2472 285.2968 283.8527 282.7531 282.4372 282.9497 284.0687 285.8703 288.2126 291.3703 294.1848 297.2000 299.8970 302.3387 305.0225 306.8391 308.1966 309.4886 310.2678 310.6745 311.0050 311.3825 310.8872 309.1078 306.7129 304.4974 302.5670 300.8438 299.3479 298.1828 296.8928 295.5379 293.8916 292.0231 289.9909 288.3513 287.2254 286.8154 286.2030 284.8502 283.8735 283.8689 284.6244 286.5588 288.8397 291.5536 294.7689 298.3665 302.4275 306.8328 311.7765 317.2075 322.5581 327.3535 331.1701 334.0083 335.9816 337.5736 338.4937 338.4840 337.5397 335.8321 333.5491 330.5757 327.3291 324.8709 322.7840 320.5128 318.3942 316.5189 314.5881 312.6507 310.8716 308.7220 306.0550 303.4485 301.0859 299.2130 298.0348 297.2179 296.9056 296.8903 297.1129 297.7170 298.9006 300.5156 302.6641 304.7818 307.4158 310.5821 314.4366 318.4267 322.4602 326.4380 330.3875 333.6076 336.5754 339.0781 341.0194 342.5795 343.4395 343.6569 343.5113 342.7975 341.6607 339.9378 337.8195 335.5395 333.3797 331.2025 329.1499 327.2134 325.4753 323.7976 322.0740 320.3922 318.6307 316.4768 314.2105 311.7556 309.1711 306.6055 303.9449 301.4094 299.2371 297.3614 295.8420 294.9565 294.7748 294.7985 295.1048 295.8624 296.8790 297.8532 298.6237 299.2225 299.6898 300.0268 300.2465 300.2875 300.0528 299.7318 299.2805 299.0144 298.7800 298.6823 299.4614 300.6166 301.5938 302.1709 302.5754 302.9099 303.3623 303.7334 304.1935 304.8719 305.5302 306.0600 306.4335 306.3387 305.7673 305.0444 304.1419 302.9943 301.3916 299.4683 297.4022 295.3619 293.4941 291.7368 289.8756 287.9749 285.9871 283.9778 282.0446 280.2903 278.5470 276.9881 275.6262 274.7279 274.0636 273.2357 272.3958 271.7572
288.6458 290.1889 291.0680 291.0701 290.9834 290.7034 289.5454 287.7761 285.6972 284.2291 282.4096 279.2683 275.6019 272.0220 268.4280 265.3006 262.0535 259.2709 257.1907 255.6938 254.7355 254.6490 255.0460 255.0618 254.5189 252.9841 250.8964 248.8287 246.8801 244.7768 242.5687 240.2508 238.3514 237.4797 237.4764 237.5862 237.5932 238.2389 239.5130 241.1504 243.4344 246.0139 248.7768 251.2467 253.0848 254.5317 256.1744 258.1187 260.9421 264.3240 267.8333 271.7903 275.6707 278.7338 281.3803 284.0442 287.2105 290.5864 294.2227 297.5109 300.0002 301.6696 302.7114 304.7567 306.7223 308.3140 309.5860 309.4056 308.1252 306.9730 306.2445 305.7986 304.2661 302.4453 300.4035 297.6893 294.4086 291.2411 288.3052 285.3087 282.7619 280.6905 278.7606 276.6181 274.2272 271.7880 269.0938 266.4583 263.9010 261.9696 260.2255 259.0604 258.9364 259.1995 259.9037 261.3360 262.9294 263.3703 263.1511 263.7526 265.1227 265.9017 265.9138 265.5544 264.8460 263.5626 262.4333 260.8904 258.5446 255.9319 254.2300 252.9478 251.7915 250.8008 250.2623 250.0260 249.8060 249.5099 249.4911 249.6054 249.6964 249.9742 250.9613 252.1040 253.3255 254.1176 255.0371 256.3116 257.9223 259.7350 261.8136 264.1749 267.3497 270.4688 273.3040 276.5915 279.5255 281.5927 283.5551 285.3599 286.9605 287.6251 287.1889 286.5724 285.6126 284.2730 283.3958 283.1043 282.0690 280.5804 279.5769 279.4354 280.6944 282.5743 284.7605 287.3939 290.4930 293.3695 296.5308 299.2164 301.4645 303.9360 305.6799 306.9007 308.3763 309.4923 310.1483 310.1307 310.0514 309.5256 308.0636 305.5303 303.0816 300.8976 299.1519 297.8442 296.9297 295.9507 294.5742 292.9396 290.8250 288.7314 286.9679 285.6246 285.0492 284.5482 283.5895 283.0714 283.0475 284.4544 286.8576 289.7625 293.2078 296.8881 300.8915 305.2296 309.6297 314.7274 319.8218 324.7883 328.9646 332.4106 334.7334 336.4352 337.5979 338.2360 337.9771 336.3886 333.9301 331.0013 327.7121 324.4132 321.7098 319.3246 316.8902 314.8878 313.0475 311.0533 309.1440 307.4933 305.7771 303.4029 301.0207 298.8514 297.2989 296.6999 296.4787 296.4659 296.9321 297.6278 298.6505 299.9344 301.7781 303.9927 306.6489 309.3746 312.7121 316.7232 320.7989 324.9865 328.8864 332.3549 335.3362 338.0646 340.4991 342.2952 343.6101 344.5434 344.7711 344.3993 343.5417 342.2383 340.3880 338.2373 335.8319 333.4338 331.1798 329.0376 327.1809 325.4305 323.6672 321.9442 320.1903 318.1703 315.9626 313.7727 311.4852 308.9606 306.3661 303.7113 301.1346 298.8211 296.9083 295.5356 294.9622 294.7901 294.7450 295.0099 295.7072 296.6462 297.4760 298.1960 298.8549 299.4675 299.8942 300.1497 300.1617 299.9507 299.4187 299.0046 298.7628 298.6880 299.1650 300.1889 301.4420 302.4819 303.1611 303.5759 303.9954 304.5401 305.0699 305.6393 306.3913 307.0493 307.5880 307.8676 307.7938 307.5485 307.0779 306.4450 305.3319 303.6410 301.4258 298.9551 296.5592 294.3818 292.3724 290.3567 288.3647 286.3434 284.3464 282.5205 280.7798 279.0546 277.4481 276.1354 275.1925 274.5361 273.6160 272.8033 272.2824
287.6393 288.6921 289.2376 289.2030 289.0958 288.9612 288.0182 286.1039 284.1135 282.1809 280.2821 277.0124 272.9716 269.5207 266.4407 263.5124 260.8597 258.7788 257.4426 256.3787 255.4091 255.3873 255.6244 255.3343 254.6287 253.1219 251.1989 248.9958 246.8244 244.7795 242.7499 240.7508 238.8592 237.8461 237.3457 237.1651 237.4244 237.8643 238.8689 240.3510 242.6338 244.9859 247.4150 249.7542 251.4681 252.6478 254.3822 257.2321 260.6520 264.2140 267.7884 271.2132 274.4990 276.9250 279.3815 281.8136 284.5611 287.6025 290.5898 293.4152 295.1828 296.5638 298.0130 300.3586 303.3834 305.5734 307.0723 307.4762 307.2815 306.7649 306.5244 306.2977 305.4693 304.6575 302.9820 300.3501 297.2304 294.3744 291.6136 288.3438 285.0866 282.3978 279.9533 277.6162 275.0693 272.2316 269.0507 266.2404 263.9805 262.0434 260.4369 259.9248 260.3405 260.9809 261.9518 263.6819 265.5501 265.9215 266.1591 267.3254 268.4615 268.9437 269.2018 269.1343 268.0789 266.2678 264.5125 262.7539 260.1118 257.3195 255.4336 253.9515 252.4085 251.0660 250.3995 250.1703 249.9899 249.7079 249.5787 249.6436 249.7623 250.0839 250.7207 251.7407 252.7991 253.4119 253.9432 254.9463 256.5229 258.1367 259.8525 262.2440 264.8307 267.4247 270.4831 273.6362 275.9022 277.7540 279.5132 281.2405 282.2534 282.4125 282.5064 282.1813 281.6093 280.9166 280.6613 280.0067 278.4530 277.0009 276.1513 276.4232 278.0387 280.3409 282.8437 285.6381 288.5569 291.6631 294.8719 297.5419 299.5627 301.5848 303.5121 305.1628 306.7947 308.2122 308.9516 309.0488 308.7565 307.9289 306.6050 304.3060 301.9144 299.8123 297.8397 296.7589 296.0686 295.0677 293.4293 291.5073 289.4724 287.4041 285.5237 284.3160 283.5633 282.7197 282.2691 282.3324 282.9689 284.4987 287.1648 290.6710 294.5794 298.9002 303.3372 307.8439 312.8369 317.4926 322.3379 326.6982 330.4274 333.1731 335.2844 336.6284 337.1294 337.4048 336.8217 334.8062 331.6826 328.2383 324.8401 321.6076 318.6705 316.0479 313.5146 311.1490 309.2589 307.3604 305.4146 303.9901 302.7445 300.9973 299.1503 297.7045 296.6241 296.0707 296.2352 296.7867 297.6252 298.4958 299.6103 301.3831 303.4879 305.6938 308.5780 311.9933 315.4734 319.3506 323.3373 327.0128 330.4481 333.6408 336.4021 339.0038 341.3413 343.3371 344.5728 345.2366 345.5231 345.1862 344.2876 342.8832 340.9538 338.7927 336.2675 333.7373 331.4306 329.2556 327.3740 325.4427 323.5245 321.6315 319.6843 317.6254 315.4201 313.3124 311.2203 308.9153 306.4518 303.8821 301.2683 298.7925 296.8288 295.5451 294.9600 294.7248 294.6729 294.8865 295.5439 296.2709 297.0459 297.8452 298.5150 299.1158 299.6216 299.8845 299.9129 299.6015 299.0548 298.6688 298.5923 298.9076 299.8089 301.0889 302.2934 303.3909 304.0136 304.4799 305.0364 305.6996 306.3116 307.1326 307.9845 308.6171 309.0754 309.3938 309.5193 309.4758 309.1758 308.7137 307.7180 305.9208 303.4767 300.6179 297.7903 295.3417 293.0805 290.9640 288.9456 286.9036 284.9998 283.1313 281.2729 279.5354 277.9951 276.6900 275.6603 274.8455 273.9514 273.3311 272.9365
286.1613 286.9543 287.3158 287.4546 287.6430 287.7146 286.5683 284.6069 282.4595 280.3977 278.2019 275.0513 271.1452 268.1325 265.4427 262.7681 260.6179 259.2513 258.5235 257.9666 257.1843 256.8846 256.5358 256.0999 255.5072 253.9702 252.0618 249.7066 247.3164 245.3215 243.3437 241.2083 239.3429 238.0394 237.1462 236.5767 236.7232 237.0367 237.7818 239.0799 241.0623 243.1436 245.2239 247.1779 249.1882 250.9973 253.3160 256.4171 260.0764 263.6425 266.9194 269.9562 272.5617 274.8009 277.3960 279.8260 282.5525 284.9026 287.3897 289.6762 290.6234 291.5464 293.5966 296.3875 299.5257 301.3589 303.0121 304.8043 305.9393 306.0438 305.8839 305.9524 306.0464 305.8188 304.6046 302.3557 299.5004 296.6972 293.9950 290.6631 286.8264 283.1963 280.2903 277.7379 274.7892 271.9238 269.1078 266.4777 264.4554 262.7848 261.6972 261.6913 262.3028 263.2582 264.3542 266.4683 268.0822 268.9204 269.5713 271.0336 272.0759 272.1259 272.0641 271.7506 270.4499 268.5573 266.3497 264.0839 261.1115 258.2862 256.3526 254.8514 253.2317 251.5558 250.6578 250.3386 250.2343 250.0484 249.9350 250.0005 250.0177 250.1257 250.5760 251.3974 252.2837 252.7981 253.1571 253.9560 255.3238 256.5506 258.1714 260.3103 262.6040 264.8252 267.8230 270.3872 272.0739 273.7888 275.5068 276.9295 277.5261 277.7432 278.5496 278.8114 278.6531 278.4407 277.9373 276.5548 274.8396 273.6563 273.1165 274.1095 276.1261 278.4287 281.1010 283.7870 286.8003 289.8613 292.6025 294.9602 296.8188 298.8761 301.2421 303.3647 304.9602 306.4387 307.6960 307.9756 307.4814 306.5498 305.0385 302.8369 300.4232 298.4281 296.6218 295.6072 294.9551 293.9812 292.3252 289.9640 287.5958 285.6306 284.0510 282.7945 282.1756 281.8978 281.7242 282.1778 283.1046 284.6338 287.2138 290.6809 294.6999 299.4290 304.3193 309.4093 314.5101 319.8362 324.5591 328.5243 331.4658 333.7742 335.4451 336.3113 336.2871 336.0316 334.8657 332.4560 329.2272 325.5883 322.0552 318.9182 315.7765 312.8113 309.9692 307.5244 305.3881 303.5306 301.7362 300.4487 299.6652 298.7136 297.7216 296.7091 295.7356 295.3739 295.8628 296.9342 297.9083 299.0905 300.4881 302.3346 304.7979 307.4674 310.8338 314.4962 318.0142 321.7354 325.4555 328.6516 331.5272 334.5375 337.2554 339.5320 341.5250 343.4695 344.9564 345.6640 345.8611 345.6170 344.9248 343.5519 341.5805 339.3369 336.8189 334.2947 331.9497 329.7145 327.6178 325.6320 323.5707 321.4203 319.2414 317.0656 314.8899 312.8540 310.9160 308.8142 306.4907 303.9969 301.3971 298.8163 296.7099 295.4442 294.8027 294.5581 294.4940 294.7949 295.3436 295.9843 296.7583 297.5208 298.1176 298.6203 299.0307 299.2972 299.2925 298.9525 298.4378 298.3295 298.6696 299.3241 300.4926 301.7923 303.0916 304.1012 304.6991 305.1815 305.7437 306.5156 307.4185 308.4316 309.3701 310.0193 310.4897 310.9016 311.2193 311.2855 311.0438 310.6999 309.8632 308.0697 305.4151 302.2720 299.2349 296.4586 293.8200 291.5508 289.4953 287.4821 285.4848 283.5487 281.6450 279.9346 278.4121 277.1165 276.0327 275.2768 274.4977 273.8382 273.3503
284.1959 284.9626 285.9073 286.5238 286.5603 285.8397 284.6753 282.8859 281.1165 279.2097 276.7856 273.2832 270.1552 267.9613 265.5499 262.9753 261.1290 260.1237 260.0003 259.6715 258.8516 258.1929 257.9141 257.7248 257.0896 255.3978 253.1380 250.8859 248.7195 246.5305 244.3149 241.8283 239.7650 238.2817 237.2486 236.4262 236.0053 236.0189 236.4893 237.5752 238.9635 240.7837 242.6644 244.5185 246.7133 249.0934 251.9685 255.2031 258.9163 262.5617 265.6522 268.3952 270.7748 273.2642 275.4597 278.0529 280.6862 282.8891 284.4099 285.5463 286.0562 287.2173 289.4785 292.4190 294.7354 296.6316 299.0784 301.6094 303.3134 304.3985 305.1058 305.8366 306.4486 306.4853 305.9623 303.9593 301.1602 298.0982 295.0957 291.8537 288.1539 283.8086 280.1411 277.1468 274.5168 272.2065 269.7356 267.2392 265.2584 264.2192 263.8183 263.9962 264.8791 265.8488 267.1750 269.2059 270.6796 271.7542 273.0242 274.1931 275.2423 275.2051 274.5444 273.7335 272.4795 270.3295 267.8827 265.1874 262.0124 259.1733 257.1535 255.6536 253.9378 252.0443 250.9858 250.6420 250.6341 250.6788 250.6513 250.6019 250.5038 250.5062 250.9622 251.4353 252.0159 252.4547 252.8440 253.4189 254.2636 255.3864 256.9625 258.9622 260.9147 262.9614 265.4275 267.2034 268.6637 270.3793 271.8871 272.9334 273.4709 274.1500 275.1948 276.1574 276.3729 275.7821 274.6889 272.9356 271.3636 270.7523 271.2661 272.9135 275.2191 277.5581 279.6318 282.4994 285.4430 287.8730 290.2557 292.2527 294.2301 296.6363 299.0613 301.3703 303.0890 304.9477 306.3605 306.6188 306.0919 305.1722 303.7980 301.3313 298.8750 296.9681 295.4828 294.4759 293.5703 292.6914 291.0538 288.6160 285.9583 283.7326 282.1506 281.2767 281.1448 281.3613 281.7656 282.4223 283.4829 284.7479 287.0693 290.2297 294.3137 298.9242 304.0825 309.5583 315.2146 320.8345 325.6483 329.4712 332.2406 333.9568 335.2419 335.7520 335.5897 334.7072 332.7765 330.0246 326.7120 323.0396 319.4388 316.1981 312.7608 309.3478 306.3423 303.8284 301.7982 300.0692 298.3682 297.1874 296.5973 296.4764 296.0521 295.3605 294.4904 294.2840 295.0592 296.5003 297.9632 299.4848 301.1368 303.4556 306.2213 309.3601 312.8462 316.4467 319.9087 323.3750 326.6623 329.6243 332.3991 335.3030 337.8311 339.8338 341.8580 343.6920 345.1373 345.9524 346.1139 345.9970 345.2318 343.8382 341.9120 339.7848 337.3597 334.8291 332.5389 330.3596 328.1911 326.0887 323.8784 321.6146 319.1447 316.6050 314.2624 312.2629 310.4481 308.4760 306.2039 303.7481 301.1755 298.6337 296.4553 295.0826 294.4325 294.1649 294.1901 294.5255 295.0837 295.8121 296.6164 297.2601 297.7049 298.0595 298.3591 298.5758 298.4405 298.1358 297.8463 298.0857 298.8320 299.8491 300.9663 302.2248 303.4716 304.5062 305.1268 305.5461 306.0394 307.0378 308.2704 309.5600 310.6088 311.2378 311.7387 312.2595 312.5991 312.7161 312.6948 312.4898 311.7250 309.9031 307.0992 303.9544 300.6836 297.5246 294.7291 292.1790 289.9384 287.7305 285.6094 283.6017 281.7791 280.0627 278.5660 277.3165 276.4259 275.7553 274.9808 274.1924 273.8692
282.9291 283.5421 284.8170 285.9984 285.6960 283.9389 282.2616 281.0548 279.5923 277.7278 275.3453 272.2699 269.7682 268.1585 265.7661 263.4757 261.7860 261.2243 261.2674 261.2361 260.3720 259.7340 259.4383 259.0105 258.1630 256.6539 254.4619 252.1955 250.1133 247.7158 245.2142 242.5562 240.2810 238.7499 237.4946 236.3294 235.2468 235.0950 235.5280 236.3578 237.3852 238.8681 240.7258 242.5699 244.6047 247.1126 250.1631 253.6453 257.4203 260.9819 263.8915 266.8948 269.6762 271.9209 274.0185 276.4514 278.8252 280.5406 281.0114 280.9750 281.6777 283.3891 285.6977 287.6630 289.3003 291.7211 294.8568 297.6828 300.1283 302.2583 303.8701 305.3073 306.2166 306.8120 306.3810 304.7655 302.0748 298.6927 295.4887 292.2224 288.2594 283.9503 279.9724 276.8417 274.4445 272.3906 270.1341 267.7701 266.2245 265.7358 265.9327 266.4281 267.3586 268.5219 269.9173 271.6935 273.2329 274.5274 275.6501 276.6946 277.6850 277.7925 276.7163 275.6011 274.4172 272.1768 269.1756 266.2857 263.1528 260.0442 257.9810 256.3118 254.2656 252.2295 251.2609 251.1178 251.3409 251.3515 251.3805 251.2760 251.1171 251.1188 251.3680 251.5296 251.8942 252.2750 252.6265 253.0459 253.5581 254.3750 255.7949 257.6049 259.4350 261.1623 262.8869 264.2764 265.5674 267.2029 268.8377 269.3554 269.9307 271.2045 272.4852 273.3040 273.2607 272.5133 271.2683 269.7782 268.6415 268.9494 270.6747 272.6877 275.1228 277.2611 279.1321 281.7339 284.1957 286.0872 288.1793 290.3117 292.3673 294.8343 297.5634 299.8407 301.8709 303.3403 304.5085 305.2139 305.0819 304.0468 302.4070 300.1305 297.8788 295.8174 294.0368 292.7455 292.0594 291.1956 289.7256 287.3579 284.5540 282.0536 280.0648 279.0693 279.4283 280.2085 280.9778 282.0785 283.3875 284.8827 287.1725 290.6040 294.5117 298.8996 304.1234 309.6891 315.2997 320.5957 325.1025 328.7938 331.2834 333.3018 334.3567 334.7095 334.4763 333.0768 330.8205 327.7166 323.9673 320.2277 316.7395 313.3934 309.5710 305.8647 302.8239 300.2909 298.2877 296.6879 295.4814 294.5858 294.2518 294.3682 294.7219 294.3435 293.6225 293.7780 294.7798 296.3058 298.2934 300.3117 302.4703 305.0181 308.2436 311.5947 314.9105 318.4885 321.7251 324.8452 327.6643 330.5414 333.4365 336.1310 338.4889 340.5002 342.4758 344.0519 345.3823 346.1928 346.4615 346.2503 345.3281 343.8185 341.8931 339.8418 337.6115 335.1890 332.9673 331.0099 328.9794 326.8328 324.5809 321.9717 319.1427 316.4225 313.9165 311.7500 309.7862 307.7093 305.5822 303.2539 300.7807 298.4139 296.3549 294.8704 294.0851 293.7385 293.7653 294.1883 294.7793 295.4964 296.3234 296.9285 297.2873 297.5086 297.6669 297.7617 297.6850 297.3960 297.3017 297.8929 298.9527 300.1047 301.1872 302.2897 303.3985 304.4488 305.0960 305.5109 306.0528 307.1812 308.7480 310.3137 311.5412 312.2721 312.8066 313.2763 313.5597 313.9700 314.0926 313.6773 312.7884 311.0186 308.2755 305.1438 301.8410 298.4864 295.5647 292.9319 290.4545 288.0294 285.7115 283.6463 281.7015 280.0193 278.5950 277.4404 276.5958 276.0062 275.2025 274.6883 274.4940
282.6316 283.2720 284.2831 285.3087 284.5650 282.4909 280.6670 279.4311 278.1297 276.4248 274.4133 272.0414 270.1689 268.6348 266.6562 264.4470 262.8834 262.2703 262.5347 262.8727 262.3470 261.5094 260.4162 259.5668 258.8893 257.4084 255.3003 253.0191 251.1689 248.8601 246.0304 243.2229 240.8336 239.0905 237.5513 236.0497 235.2436 235.0041 235.3203 235.9552 236.9268 238.0158 239.4932 240.9509 242.6212 245.1633 248.1918 251.6360 255.4304 259.0565 262.0666 265.0319 268.2235 270.3499 272.4389 274.6302 276.7699 277.7954 277.5616 277.8305 278.4735 279.8544 281.4891 283.0274 284.3991 286.2774 289.7531 293.3821 296.3803 299.1843 302.0752 304.1748 305.5428 306.5089 306.3271 305.0623 302.4102 299.1535 295.9229 292.1920 287.8993 283.6342 279.8108 277.0711 274.6793 272.3982 270.2726 268.5713 267.5354 267.1548 267.5317 268.2780 269.5425 271.0948 272.5017 273.9318 275.7606 277.3131 278.4034 279.3818 279.9540 279.8910 279.2318 277.8722 276.4004 273.6364 270.4903 267.3202 264.0486 260.9931 258.8033 256.7316 254.4121 252.5710 251.8283 251.9923 252.2201 252.1156 252.1094 252.0146 251.8818 251.8593 251.7351 251.7154 251.8409 252.1535 252.4412 252.6540 252.9347 253.6063 254.9382 256.2339 257.6114 258.9071 260.2473 261.7723 262.8791 264.4468 265.9250 266.6552 267.4808 268.8234 270.0440 270.3527 270.0208 269.0124 268.2219 267.2991 266.8224 268.1581 270.4910 272.7012 275.1788 277.1760 279.1118 281.2065 283.3525 285.0882 287.0485 289.1203 291.0768 293.6898 296.3971 298.2740 300.0307 301.3336 302.4250 303.2378 303.3478 302.8217 301.6299 299.4883 296.9384 294.5514 292.5152 290.9543 290.2267 289.4536 288.2351 286.1010 283.4344 280.8449 278.7552 277.5245 278.1559 279.2408 280.5491 281.9207 283.4014 285.1119 287.9073 291.5699 295.6317 300.0984 304.8952 310.3655 315.5984 320.0948 324.2869 327.5840 330.3783 331.9656 332.8141 333.2691 332.7046 331.2458 328.5111 325.0166 321.1303 317.2422 313.8439 310.2315 306.2875 302.5475 299.6034 297.0589 295.0352 293.4662 292.7386 292.5974 292.6693 292.9693 293.2736 293.3773 293.2048 293.8215 295.2473 296.7601 298.9767 301.6064 304.3362 307.3595 310.5863 313.8527 317.2629 320.4828 323.4844 326.1309 328.8933 331.7199 334.5707 337.3162 339.7061 341.7099 343.1861 344.4270 345.4815 346.2571 346.3605 345.8799 344.9371 343.4807 341.6317 339.6043 337.5189 335.3411 333.2220 331.4205 329.5269 327.4963 325.1860 322.4109 319.4582 316.6201 314.0586 311.6446 309.2883 307.0019 304.8628 302.7184 300.4046 298.2234 296.3188 294.7657 293.8849 293.4382 293.4047 293.7738 294.3319 295.0273 295.7986 296.4110 296.7034 296.8331 296.9803 297.0510 296.8947 296.6072 296.6343 297.4124 298.6775 299.8273 300.9671 301.9579 302.8918 303.8708 304.5560 305.0515 305.7844 307.0639 308.8383 310.5564 311.9254 312.7281 313.3014 313.7871 314.1853 314.6403 314.6621 314.1301 313.1785 311.4337 308.8752 305.8297 302.5562 299.2379 296.1620 293.4630 290.9991 288.4923 286.0711 283.7234 281.6204 279.9479 278.5822 277.4139 276.5701 276.0184 275.3809 275.1530 275.1319
282.9224 283.6708 284.2967 284.2561 283.2493 281.6658 279.9701 278.5559 277.4952 276.0164 274.3385 272.6040 271.0178 269.5385 267.7635 265.8536 264.3119 263.7435 264.1207 264.5111 264.3698 263.2236 261.4450 259.9533 259.0540 257.5636 255.2617 253.1921 251.4206 249.3787 246.7024 243.7633 241.3873 239.3985 237.2795 236.0403 235.8811 235.9349 235.9957 236.2756 236.8885 237.5968 238.6405 239.8317 241.2064 243.4009 246.5175 250.0970 253.8987 256.9731 259.8209 262.9016 265.8246 267.9963 269.8933 272.0335 273.9535 275.0971 275.2099 275.2551 275.5646 276.0824 276.8557 277.9186 279.4014 281.2487 284.6224 288.7623 292.3951 295.8906 299.3924 302.1575 304.3918 305.6601 305.9880 305.1603 302.7576 299.8732 296.6648 292.3931 287.9042 283.6864 280.1460 277.3829 274.8722 272.5399 270.5458 269.3933 268.8567 268.5074 269.0296 269.9825 271.5390 273.5816 275.1046 276.5154 277.9607 279.8582 280.9742 281.7049 282.1984 282.4308 282.1093 280.4802 278.0919 275.0715 271.5794 268.1191 264.6019 261.7629 259.3761 256.9605 254.6358 253.1260 252.8072 252.9685 252.9362 252.9056 252.8730 252.9246 252.8611 252.7894 252.4404 252.1628 252.0975 252.0829 252.1906 252.2742 252.2940 252.8901 253.7629 254.7218 255.6017 256.4197 257.9326 259.4052 260.6642 262.0929 263.3936 264.6495 265.7943 266.8652 267.5399 267.2173 266.4994 265.9720 265.6511 265.2515 265.5921 267.5421 269.9181 272.4546 274.8301 276.9447 278.7823 280.7131 282.8107 284.6832 286.2390 288.0341 290.0576 292.2318 294.3023 295.8810 297.3038 298.6688 299.6097 300.4540 300.9397 301.0946 300.6181 298.7141 296.1174 293.6344 291.2054 289.5367 288.3515 287.5885 286.2299 284.4450 282.2747 279.8687 277.7336 276.7848 277.2724 278.6608 280.3418 281.9851 283.4562 285.3613 288.4710 292.5781 297.1290 301.7887 306.7679 311.8391 316.5377 320.5530 323.8858 326.9273 329.1099 330.3972 331.0978 330.9781 330.2078 328.3202 325.6522 322.0790 317.9925 314.0579 310.4465 306.9745 303.0734 299.5271 296.6913 294.3262 292.4170 290.9262 290.4154 290.7173 291.4665 292.2188 292.6385 292.7581 293.1409 294.4248 296.2366 298.0289 300.4384 303.5138 306.7964 310.3071 313.7052 316.7638 319.9814 323.0292 325.4330 327.9213 330.5403 333.4347 336.2718 339.0645 341.3935 343.0671 344.1391 344.8938 345.5041 345.8448 345.8550 345.3326 344.2754 342.7860 341.0673 339.2252 337.1852 334.9907 332.9337 331.2074 329.5457 327.6307 325.3488 322.7910 319.9957 317.0806 314.4439 311.8292 309.2278 306.6370 304.3225 302.1805 300.0036 298.0233 296.2367 294.7589 293.8078 293.2573 293.0572 293.3130 293.8303 294.4261 295.0922 295.7066 295.9658 296.0748 296.3160 296.3401 295.9511 295.6118 295.7910 296.7060 297.8372 299.0959 300.2909 301.2771 302.0460 302.9370 303.7784 304.4631 305.2642 306.6810 308.6007 310.5474 311.8290 312.6517 313.1927 313.5809 314.0832 314.5384 314.6689 314.2429 313.2323 311.6256 309.2449 306.1960 302.8059 299.5487 296.5315 293.8375 291.3350 288.7671 286.1872 283.7408 281.5896 279.8650 278.4361 277.2719 276.4904 275.9625 275.6378 275.6914 275.8128
283.3532 284.1515 283.8501 283.2800 282.6871 281.4757 279.9160 278.7325 277.8153 276.4194 274.8291 273.5094 272.2595 270.8723 269.0060 267.1866 266.0533 265.5256 265.9113 266.2985 265.8807 264.5544 262.2901 260.1904 258.7135 256.9588 254.6210 252.6623 250.8591 248.8102 246.5146 243.8242 241.4617 239.3085 237.4414 236.7066 236.8618 237.2188 237.2457 237.0144 237.0206 237.4239 238.1265 238.9222 240.0362 242.1711 245.2958 248.8466 252.2203 254.9264 257.4792 260.2794 262.8901 265.2064 267.0424 269.1370 271.0476 272.3481 272.6635 272.1064 271.6475 271.1646 271.3236 272.6371 274.5640 277.0271 280.2405 284.6156 288.9091 293.0132 296.6460 300.0350 302.5541 304.3462 305.1921 304.5693 302.6101 300.0846 296.7324 292.3709 287.8113 283.8903 280.6766 278.1915 275.3552 272.7362 271.1438 270.1377 269.6755 269.7873 270.2646 271.4894 273.3654 275.6874 277.5667 279.1112 280.3295 281.7485 283.1170 284.0650 284.6650 284.9256 284.3405 282.6216 279.3877 275.8046 272.2147 268.3509 264.9805 262.2331 259.4780 256.9673 254.9166 253.8460 253.4609 253.3492 253.4303 253.5651 253.7921 253.9550 253.9265 253.7356 253.5008 253.0918 252.6742 252.3163 251.9707 251.8047 251.7955 252.1384 252.6021 253.1541 253.7760 254.6140 256.0631 257.4684 258.6674 259.9411 261.3288 262.6520 263.7464 264.4937 264.4223 263.9114 263.3221 263.3899 263.6288 263.5528 264.7021 266.8972 269.3762 271.8439 274.3470 276.5006 278.2033 279.8810 281.6754 283.4145 285.2420 286.9121 288.4125 290.1142 291.7566 293.4235 294.6750 295.7381 296.4361 297.4252 298.0309 298.3867 298.3032 297.1062 295.0715 292.6123 289.9569 287.8732 286.5638 285.4875 284.0601 282.5085 280.8238 278.8174 276.9259 276.0417 276.6622 278.2603 280.1699 281.9046 283.5326 285.7754 289.0611 293.2000 298.0131 303.2339 308.4289 313.3980 317.9074 321.5546 324.2981 326.7330 328.3475 328.9876 328.9182 328.2983 327.0150 324.8396 322.0337 318.6418 314.6638 310.8004 306.9339 303.4265 299.9946 296.6987 294.0664 292.0935 290.3421 289.1440 288.8455 289.7064 290.6177 291.6740 292.3272 293.0317 294.0051 295.7518 297.9032 300.0664 302.7266 305.9648 309.4343 313.1707 316.8744 320.0501 322.7950 325.2595 327.6120 330.0715 332.6611 335.1610 337.7452 340.3248 342.5280 344.0037 344.7422 345.1970 345.5031 345.5176 345.2290 344.5923 343.5112 341.9851 340.2644 338.3685 336.2477 334.1012 332.2065 330.5618 329.0036 327.2890 325.1776 322.8576 320.3154 317.5644 314.8365 312.1028 309.3530 306.6073 304.0433 301.7274 299.6386 297.8452 296.1744 294.7870 293.7755 293.0981 292.8105 292.9481 293.3466 293.7518 294.2729 294.8604 295.0857 295.2699 295.4191 295.2307 294.7058 294.3703 294.7007 295.6314 296.8271 298.1251 299.2986 300.2372 301.0409 301.8788 302.7301 303.4721 304.3699 305.9610 307.9670 309.7536 311.0479 311.8318 312.2207 312.7126 313.2676 313.8911 314.1614 313.9067 313.1753 311.7480 309.1569 305.8972 302.4726 299.3009 296.4893 293.7790 291.2466 288.6736 286.0450 283.6651 281.5658 279.7952 278.4333 277.3497 276.5880 276.3384 276.3093 276.5317 276.5877
283.8706 284.2306 283.8792 283.2285 282.9873 281.9464 280.6636 279.6328 278.7388 277.4674 275.9217 274.9101 274.1001 272.8611 271.0829 269.5457 268.4827 267.9322 268.0150 268.1768 267.0266 264.9879 262.6989 260.3744 258.1522 255.8953 253.5757 251.7224 249.9080 247.9439 245.6140 243.2113 241.2203 239.5458 238.4583 238.2716 238.3987 238.5105 238.3815 238.0181 237.8136 237.5831 237.4973 238.0017 239.3227 241.6538 244.5883 247.8814 250.5746 252.9673 255.4214 257.9897 260.3684 262.7277 264.8562 266.8490 268.5100 269.6714 269.6604 268.5954 267.1199 266.3524 266.6548 268.2154 270.4557 273.3742 277.0994 281.6921 286.4970 290.8590 295.0466 298.4254 301.1491 303.0241 303.7709 303.2530 301.8538 299.5734 296.0907 291.8877 287.8109 284.3493 281.7090 279.1925 276.2798 273.5885 271.8254 271.0200 270.7319 271.1472 271.8550 273.2210 275.2577 277.6894 279.9765 281.8271 282.8123 283.9015 285.5103 286.9215 287.5454 287.4585 285.9825 283.4956 280.0779 276.2534 272.2032 268.2801 265.0013 262.4004 259.4490 256.8289 255.4010 254.6926 254.0642 253.8063 254.1318 254.5433 254.7527 254.8475 254.9270 254.8460 254.6214 254.1819 253.5048 252.8546 252.1398 251.6842 251.6579 251.6518 251.9033 252.1590 252.5443 253.5109 254.7487 255.9106 257.0559 258.1307 259.4003 260.4319 261.2859 261.6000 261.4084 261.0891 260.9214 261.1379 261.5204 262.1342 263.6402 266.2655 268.9640 271.2363 273.6400 275.7711 277.2774 278.7258 280.3322 282.2635 283.9424 285.2970 286.7354 288.5344 289.9630 291.2060 292.3358 292.8446 293.3220 293.9792 294.6503 295.3956 295.6678 294.6926 293.1689 291.0170 288.5134 285.9840 284.2846 283.0731 281.7803 280.5366 279.2107 277.4953 275.9419 275.1321 275.9438 277.7242 279.7130 281.7540 284.0838 286.8141 290.2580 294.6513 299.5568 304.8535 310.2917 315.3215 319.6899 322.8515 325.2389 326.9765 327.9313 327.7773 326.7043 325.6193 323.7191 321.2016 318.1664 314.7154 311.0822 307.3054 303.6036 300.1210 297.0048 294.2029 291.9579 290.1476 288.8579 288.0240 288.2072 289.0299 290.4017 291.5284 292.4571 293.3855 294.9942 297.4255 300.1053 302.8009 305.6729 308.7105 312.0580 315.7850 319.2862 322.1618 324.6376 326.8787 329.0109 331.4357 333.7484 336.0327 338.1893 340.5507 342.6185 344.0397 344.8705 345.2458 345.2731 345.1449 344.5846 343.7381 342.5711 341.0699 339.2765 337.2146 335.0274 332.9444 331.1972 329.6441 328.0716 326.5574 324.6934 322.4656 320.0820 317.4965 314.8422 312.1281 309.3090 306.5500 303.9355 301.5712 299.4969 297.7711 296.1637 294.7064 293.6831 292.9589 292.5795 292.5973 292.8130 293.0915 293.4699 293.8051 294.0478 294.1971 294.0965 293.6517 293.1799 293.0636 293.5125 294.3990 295.6372 296.9361 298.1701 299.1635 299.9767 300.7854 301.5313 302.1597 303.2049 304.9181 306.7209 308.2315 309.4154 309.9819 310.6505 311.3454 312.0115 312.7282 313.1959 313.2157 312.7109 311.2191 308.5439 305.2685 301.7887 298.5820 295.9204 293.3529 290.9566 288.4211 285.8059 283.4673 281.4895 279.7336 278.3872 277.4313 277.1091 277.2602 277.3127 277.4831 277.4612
284.4469 284.7039 284.7066 284.5775 284.1057 283.0833 281.6560 281.0619 280.2343 279.2882 278.1805 277.1724 276.2408 275.3335 273.9059 272.3031 271.0393 270.3190 269.8567 269.1850 267.3297 264.8751 262.3901 259.9119 257.1258 254.3697 251.9471 250.0527 248.3344 246.6047 244.5855 242.6864 241.2881 240.6119 240.3995 240.4442 240.3549 240.1107 239.9441 239.6376 239.1638 238.3103 237.6278 237.9621 239.1808 241.4141 243.8150 246.5532 248.9821 250.8957 253.0780 255.9484 258.6224 260.7843 262.9612 265.0950 266.5077 267.0787 266.6697 265.4508 263.4294 262.6252 263.3290 264.9769 267.5936 271.4553 275.4468 280.3317 285.2161 289.7453 294.1502 297.8043 300.5798 301.8091 302.0203 302.0083 301.2504 299.1624 295.8452 292.1873 288.5294 285.4717 282.7480 279.7036 276.6404 274.1754 272.5316 271.6548 271.7082 272.4891 273.9185 275.3078 277.3417 279.8124 282.1840 283.9029 285.1745 286.8104 288.6879 289.8228 290.1368 289.5364 287.4195 283.9465 280.3736 276.3541 272.1010 267.9380 264.6995 261.7763 259.2058 257.0080 255.8866 255.3948 254.8252 254.7923 255.3137 255.5797 255.6584 255.7435 255.8442 255.8831 255.7731 255.4081 254.6425 253.6551 252.9181 252.4479 252.1428 251.9002 251.9199 252.1743 252.5185 252.9966 253.8038 254.6677 255.6228 256.6068 257.5439 258.2136 258.6204 259.0715 259.0632 259.0497 259.1387 259.3076 259.9199 260.9167 262.8581 265.6460 268.5112 270.6316 272.5456 274.3788 275.5560 276.9188 278.3950 279.7909 281.3038 282.7245 284.5509 286.4364 287.6861 288.5712 289.6862 290.0510 290.1903 290.6131 291.2151 292.1873 292.7021 292.1321 290.8168 288.9975 286.6559 284.1133 282.0570 280.4179 279.6248 278.9519 277.7706 276.2976 275.0299 274.3110 275.1741 277.1019 279.3575 281.7968 284.6272 287.8548 291.7552 296.4419 301.4799 306.6601 311.7468 316.3958 320.5308 323.6886 325.7451 326.9615 327.1728 326.2433 324.8448 322.9885 320.6153 317.7836 314.3811 310.7485 307.1385 303.6397 300.3191 297.1031 294.2272 291.9003 290.0476 288.5520 287.5163 287.4918 288.2967 289.4097 290.8258 292.2173 293.4392 294.7492 296.5685 299.3137 302.6983 305.9802 309.0852 311.9953 314.9704 318.2194 321.3705 323.8495 325.8494 327.9225 329.9034 331.9548 334.1236 336.0872 338.2026 340.4429 342.2865 343.7818 344.7905 345.1223 345.0038 344.7423 344.1176 343.0876 341.8048 340.1982 338.3427 336.1789 333.9319 331.8036 329.9104 328.4085 326.8269 325.3815 323.6625 321.6017 319.3440 316.9617 314.3821 311.7676 309.1558 306.4562 303.8626 301.5462 299.5086 297.7769 296.1371 294.7733 293.7616 292.9893 292.5120 292.3025 292.2720 292.2909 292.5323 292.6184 292.6260 292.6136 292.3066 291.8649 291.6056 291.7546 292.3507 293.2823 294.5065 295.8171 297.0709 298.1227 298.9829 299.7423 300.4023 300.9756 301.9127 303.4350 304.9077 306.2469 307.0994 307.8565 308.7661 309.5660 310.3844 311.3193 312.0691 312.2540 311.6691 310.1055 307.4750 304.3621 300.9172 297.7230 295.1337 292.7591 290.4098 287.8448 285.3672 283.1342 281.1388 279.4740 278.2730 277.7536 277.9374 278.3148 278.3492 278.2800 278.1895
285.7672 285.6948 286.1598 286.3928 285.9682 284.9323 283.3992 282.4627 282.1841 281.8005 281.0917 280.0792 278.8618 277.5230 275.6948 273.9983 272.6399 271.6775 270.5044 269.1352 267.4150 264.7850 261.8648 258.9259 255.6927 252.7846 250.0869 247.9655 246.2805 244.9701 243.5609 242.4911 242.1550 242.3421 242.6585 242.8837 242.7946 242.3766 241.9365 241.4766 240.8573 239.8445 238.8019 238.6904 239.2709 240.8564 242.8391 245.0212 247.2460 248.9811 251.0827 253.9168 256.9798 259.5448 261.4100 263.3564 264.7664 264.9212 264.0777 262.5435 261.1415 260.6958 261.7344 263.7039 266.9375 271.0574 275.4139 280.1032 284.9406 289.6933 293.9517 297.3899 299.9999 300.9420 300.9909 301.1563 300.9313 298.7726 295.9864 292.8279 289.1711 285.9735 282.8260 279.6048 276.4185 274.1247 273.0023 272.5380 272.9385 273.9377 275.7591 277.9105 279.9939 282.2381 284.0640 285.7856 287.6466 290.0515 291.9951 292.5570 292.0125 290.7556 288.3148 284.6097 280.4427 276.0760 271.5756 267.6096 264.1572 261.2549 258.8697 257.3075 256.3385 256.0191 255.9870 256.3987 256.7858 256.8892 256.7046 256.6605 256.6522 256.7954 256.8162 256.6041 255.9853 255.0315 254.1185 253.4281 252.7303 252.5352 252.4427 252.5808 252.8095 253.0820 253.2708 253.6637 254.4540 255.3923 256.1035 256.2944 256.8151 257.2900 257.2567 257.6040 257.7036 257.8858 258.7636 260.0720 262.2325 264.8631 267.5871 269.6690 271.1689 272.5904 273.4567 274.2457 275.4409 276.8493 278.3454 279.7284 281.6385 283.3646 284.8546 285.7729 286.7328 287.3232 287.4666 287.8401 288.4160 289.2195 289.8172 289.8691 288.9087 286.7848 284.4538 282.2375 279.9937 277.9881 277.2929 277.0330 276.3409 275.4878 274.4640 273.9193 274.7011 276.7663 279.3022 282.3849 285.5479 288.9297 293.0754 297.9233 303.0785 308.0558 312.7012 316.9417 320.3042 323.2321 325.2536 326.0178 325.6072 324.2658 322.4846 320.2356 317.4923 314.1945 310.6328 306.9987 303.4118 300.0620 297.0202 294.2746 291.8060 289.9135 288.4428 287.3727 287.1432 287.7819 288.9568 290.4189 292.3013 293.8497 295.2588 297.1812 299.4890 302.1028 305.5378 309.0870 312.3706 315.3054 317.9942 320.6020 323.1422 324.9729 326.5860 328.1042 329.7401 331.8605 333.9832 335.7794 337.8919 340.0201 341.9214 343.4734 344.5505 344.9962 344.8645 344.4747 343.6812 342.6130 341.2032 339.4805 337.5300 335.3592 333.1377 330.9127 328.9352 327.1746 325.5349 323.8870 322.2197 320.3558 318.4406 316.2133 313.8022 311.2758 308.7263 306.1091 303.7475 301.5505 299.5579 297.7589 296.2587 295.1354 294.1254 293.2952 292.7102 292.2583 291.8520 291.6791 291.6942 291.4926 291.1525 290.8885 290.6049 290.2922 290.2449 290.5148 291.0781 292.2177 293.4595 294.6995 295.8754 296.9197 297.8084 298.6101 299.1972 299.7034 300.6321 301.8008 302.8799 304.0209 304.9246 305.7178 306.5720 307.5373 308.7654 309.9333 310.6981 310.8201 310.1000 308.4979 306.0715 303.0589 299.7176 296.6199 294.1160 291.8150 289.4564 286.9540 284.6197 282.5708 280.6214 279.2509 278.4505 278.2624 278.6489 279.0851 278.9808 278.7967 278.6508
287.6558 287.7468 287.9209 287.8698 287.6810 286.7821 285.5511 284.6089 284.3956 284.3483 283.8773 282.5617 280.6525 278.5241 276.4182 274.4087 272.9145 271.4207 270.1092 269.1999 267.6396 265.0449 261.7410 258.1782 254.6612 251.5367 248.4638 246.1029 244.5203 243.5828 243.2319 243.2872 243.6336 244.2529 244.7180 245.1975 245.2982 245.0194 244.2918 243.5496 242.9122 241.8554 240.5258 239.6768 239.8315 240.7103 242.1690 243.8685 245.7750 247.5905 249.6879 252.3369 255.0813 257.7998 259.7092 261.2478 262.3427 262.4416 261.9011 260.9500 260.2929 260.7741 262.2830 264.5816 267.7152 272.0054 276.4662 281.1158 285.6656 290.3824 294.1250 297.1700 299.3388 300.2605 300.4873 300.8901 300.1405 298.1622 295.5211 292.6578 289.3576 285.9491 282.5799 279.3969 276.1688 274.0030 273.3488 273.7187 274.6658 276.1472 278.1763 280.6853 283.1184 285.2765 286.8228 288.0591 289.9967 292.7903 294.5444 294.6263 293.5547 291.6268 288.5881 284.5738 280.4807 275.9427 271.2433 267.2123 263.9389 261.2875 259.0415 257.7283 257.0000 257.1012 257.6042 258.1613 258.6179 258.6172 258.1614 257.7831 257.5879 257.7753 257.8458 257.8249 257.5046 256.7385 255.4735 254.5417 253.7885 253.5538 253.3697 253.4301 253.5489 253.6415 253.6438 253.7403 254.2391 254.9980 255.5162 255.6098 256.2162 256.3884 256.2619 256.5641 256.6209 256.8222 257.9442 259.4301 261.5172 263.9009 266.3086 268.0954 269.2302 270.0706 270.6046 271.3034 272.3360 273.6258 274.9765 276.5046 278.3217 280.1841 281.7458 282.7397 283.8489 285.0800 285.2136 285.5821 286.1257 287.0729 287.9153 288.1885 287.0270 284.7260 282.1111 280.1576 277.9544 276.0725 275.1204 274.7675 274.4503 274.3423 274.1193 273.8150 274.4765 276.7146 279.5676 282.9054 286.3544 290.3523 295.1812 300.0800 305.3264 310.2165 314.4286 317.7280 320.2361 322.3171 323.6744 324.1028 323.3840 321.6212 319.4562 316.8755 314.2082 311.0456 307.3158 303.3666 299.7702 296.8134 294.1501 291.8112 289.7753 288.4500 287.5024 286.8894 287.1864 288.5875 290.1650 292.0856 294.0508 295.8155 297.8246 300.2577 303.0359 305.7736 308.7696 311.8538 314.8966 317.6716 319.6584 321.5975 323.2175 324.6130 326.0012 327.4763 328.9095 330.8070 332.8153 334.6992 336.8886 338.9846 341.0560 342.7191 343.7821 344.4224 344.5540 344.3268 343.4751 342.1553 340.6309 338.8553 336.9544 334.8734 332.6367 330.5046 328.4206 326.4073 324.5064 322.6736 320.7493 318.9768 317.2181 315.2286 312.9733 310.5555 308.1246 305.6902 303.4930 301.5013 299.6491 297.9911 296.5846 295.5683 294.7009 293.8636 293.1240 292.3478 291.7470 291.3756 291.1197 290.6244 290.0762 289.6144 289.3379 289.1301 289.1340 289.4395 290.1201 291.1631 292.2732 293.4127 294.5334 295.5425 296.3923 297.1671 297.7278 298.3267 299.1227 300.0329 300.9446 302.0215 302.8121 303.3561 304.2734 305.6628 307.1701 308.4077 309.0046 308.9113 307.9944 306.3691 304.0292 301.2213 298.1623 295.2507 292.8025 290.5213 288.2207 285.9575 283.8843 281.8795 280.1236 279.0054 278.5580 278.6355 278.9908 279.2896 279.0984 278.8015 278.7501
289.4317 289.7511 289.5272 289.2086 288.9439 288.4210 287.4024 286.9630 286.7892 286.4138 285.6746 283.9748 281.3748 278.8490 276.4142 274.5008 272.6558 270.8466 269.4145 268.6232 267.2464 265.1652 261.8609 257.8975 254.1122 250.4964 247.3376 245.0024 243.4825 243.2168 243.7973 244.4901 245.0458 245.7607 246.5893 247.2921 247.6080 247.4701 246.8860 246.1793 245.4641 244.1076 242.3350 240.9476 240.4156 241.0055 241.8322 243.1378 244.5900 246.3267 248.3056 250.6485 253.0571 255.4691 257.4309 258.8330 259.9026 260.5388 260.6978 261.0247 261.2617 262.3931 264.1672 266.5929 269.5576 273.6325 277.9973 282.5746 287.2305 291.3562 294.5081 296.8622 298.7038 299.9150 300.4355 300.0493 299.0371 297.2054 294.8968 292.1139 288.9243 285.6458 282.3643 279.2038 276.5497 274.8184 274.5204 275.3694 277.0486 279.1360 281.0099 283.5075 286.0889 288.2196 289.3438 290.7161 292.4680 294.8297 296.4291 296.2554 294.6544 292.0515 288.4519 284.1333 279.6526 275.3946 270.9603 267.1364 263.7809 261.3080 259.6317 258.4738 258.0570 258.3746 259.1364 259.9980 260.6842 260.8273 260.3501 259.6027 259.0796 259.0767 259.3586 259.4487 259.3299 258.5805 257.1883 255.9559 255.3326 255.1916 255.2740 255.1020 254.8466 254.7691 254.5741 254.8162 255.1770 255.8059 255.9387 256.0899 256.4115 256.3593 256.2077 256.2111 256.1079 256.4953 257.3646 258.7265 260.4435 262.5370 264.6775 266.0806 266.8037 267.1703 267.6937 268.5491 269.4485 270.5537 271.9723 273.5948 275.3609 277.2068 278.7989 280.0129 281.5873 282.8907 283.6557 283.9169 284.5274 285.4616 286.1843 286.4603 285.0739 282.4564 279.8055 277.9735 276.0459 274.2709 273.1556 272.5656 272.5162 272.9918 273.5244 273.7727 274.5247 276.7834 279.9869 283.4904 286.9968 291.5883 296.6776 302.2385 307.1848 311.7427 315.3941 318.0497 319.6870 320.8055 321.5318 321.4348 320.5807 318.7941 316.1692 313.6160 310.9198 307.8635 303.9631 299.9650 296.4346 293.6958 291.4966 289.5362 288.0287 287.2121 286.8895 286.8936 287.9164 289.9280 292.0657 294.3075 296.4423 298.2638 300.7178 303.8675 306.7058 309.6147 312.2137 314.6900 316.9366 318.7766 320.0421 321.0537 321.9577 323.1897 324.5555 326.0403 327.4707 329.2265 331.2169 333.2871 335.5777 337.8419 339.6677 341.4209 342.6862 343.6425 343.9951 343.8642 343.0465 341.6207 340.0248 338.2930 336.5064 334.5544 332.4307 330.3427 328.2914 326.1408 323.9472 321.7921 319.6723 317.6903 315.8464 313.8908 311.8156 309.6245 307.3282 305.1456 303.2255 301.3607 299.6623 298.1400 296.8836 295.9448 295.1697 294.3359 293.4458 292.6265 291.9840 291.4606 290.9510 290.3172 289.5842 289.0898 288.6221 288.3106 288.3317 288.6144 289.2195 290.0279 290.9603 292.0279 293.1271 294.1226 294.9971 295.6756 296.3415 296.9756 297.6581 298.3876 299.0673 299.9788 300.8091 301.1882 302.2278 303.8222 305.3177 306.3989 306.8909 306.4786 305.4012 303.6933 301.3438 298.9059 296.1851 293.4987 291.3041 289.1267 286.8388 284.8507 282.9657 281.0240 279.5020 278.6011 278.3528 278.4967 278.8146 279.0279 278.6977 278.4442 278.4077
290.8490 290.9301 290.6099 290.2138 289.8954 289.4154 288.7486 288.4445 288.2587 287.6329 286.2571 284.0987 281.5296 279.0444 276.8280 274.9397 272.7603 270.2860 268.7058 267.4346 265.8662 263.9577 260.9162 257.0555 253.4862 249.9970 246.8305 244.4664 243.3389 243.5451 244.2893 245.0578 245.7113 246.8405 248.1319 249.0762 249.7206 249.9959 249.8416 249.3125 248.2885 246.4849 244.2831 242.4027 241.3123 241.2628 241.7097 242.5044 243.6439 245.0555 246.7947 248.7063 250.5629 252.7369 254.7358 256.3720 257.8099 259.1758 260.5518 262.0126 263.3283 265.0620 266.9933 269.2271 271.9482 275.3770 279.3560 283.8177 288.1512 291.8809 294.8877 296.7649 298.1752 299.8616 300.4021 299.6539 298.3568 296.8624 294.4240 291.5793 288.4535 285.2843 282.1146 279.4138 277.5697 276.4785 276.4350 277.6238 279.8148 282.1015 284.1856 286.1072 288.2655 289.9098 291.0621 292.7418 294.5004 296.0109 297.0959 296.8446 295.0574 291.6274 287.6519 283.0017 278.2154 273.9073 269.9188 266.5973 263.9454 261.7607 260.2752 259.4581 259.3734 260.1082 261.1008 262.1161 262.9052 263.1399 262.9952 262.3150 261.6401 261.2590 261.3083 261.5584 261.4571 260.7844 259.2526 257.9027 257.3580 257.5081 257.8697 257.7648 257.2173 256.8879 256.7588 256.8762 257.2914 257.3237 257.1432 257.0770 257.1070 256.8457 256.6250 256.3140 256.2117 256.4590 257.1351 257.9312 259.1617 260.6879 262.5121 263.9360 264.4684 264.8762 265.4332 266.3658 267.2991 268.3389 269.8301 271.1760 272.5111 274.4684 275.9858 277.8920 279.7246 281.1069 282.2412 282.8252 283.1776 283.8233 284.2254 284.6516 283.2201 280.3567 277.5562 275.6528 274.1734 272.5299 271.1185 270.6947 271.1525 271.8756 272.9092 273.8161 275.0653 277.5252 280.8890 284.5259 288.5931 293.2144 298.2322 303.2816 308.2378 312.3102 315.5095 317.7994 318.8910 319.2264 319.4517 318.9772 317.8332 315.8801 313.5537 310.9385 307.7898 304.3126 300.5688 296.7505 293.4406 290.9749 289.1480 287.4701 286.5500 286.4644 286.8746 287.6958 289.3569 291.7130 294.3848 296.9937 299.3778 301.4518 304.0960 307.3317 310.1131 312.7250 314.9216 316.7697 318.2311 319.2332 319.4081 319.6024 320.1546 321.0564 322.3594 323.9084 325.4797 327.3720 329.5171 331.8622 334.2043 336.4746 338.3538 340.0857 341.4895 342.5901 343.1907 343.0482 342.1203 340.7932 339.2246 337.5957 335.9215 334.1603 332.2056 330.2315 328.1649 325.9139 323.4710 321.1609 318.8366 316.6032 314.5241 312.5947 310.6323 308.6108 306.4927 304.5784 302.8878 301.1897 299.4942 298.1133 297.0774 296.1913 295.3708 294.5653 293.6841 292.9509 292.2886 291.6995 291.1964 290.4032 289.6836 289.0468 288.4467 287.9710 287.7597 287.8191 288.1799 288.8885 289.7516 290.6448 291.5946 292.6099 293.5223 294.3215 294.9927 295.5448 296.1194 296.7830 297.2062 298.1405 298.8003 299.2317 300.3294 301.8952 303.0103 303.7966 304.0816 303.6201 302.4343 300.5801 298.3037 296.0540 293.6969 291.5142 289.5425 287.4376 285.2672 283.3390 281.5251 279.7964 278.4735 277.9870 277.8001 277.8041 278.1525 278.2369 277.9373 277.7470 277.6982
292.0897 291.7820 291.6174 291.1893 290.6982 290.1971 289.9584 289.9002 289.3831 287.9640 286.0375 283.6769 281.1693 279.1525 277.5409 275.4650 272.5361 270.1320 268.1260 266.1129 264.1267 261.7023 258.6989 255.7366 252.5622 249.5531 246.6470 244.4950 243.5540 243.8385 244.3555 244.9804 246.2708 248.0377 249.5900 250.8125 251.8197 252.6059 253.0038 252.6464 251.3681 249.1493 246.4672 244.3590 242.8050 242.0268 241.7091 242.0573 242.9777 244.1534 245.3481 246.9069 248.5019 250.3480 252.2783 254.2159 256.0887 258.1502 260.5191 262.7235 265.1989 267.8532 269.9856 272.1196 274.6460 277.2794 280.6863 285.0405 289.0707 292.6812 295.4224 297.2072 298.6691 300.1214 300.4883 299.6626 298.4554 296.5383 294.3163 291.4856 288.3736 285.3476 282.5331 280.1319 278.8124 278.5548 278.9456 280.1740 282.3455 284.6611 286.6798 288.2766 289.6794 290.9103 291.9911 293.7005 295.6130 296.7191 296.7333 296.0682 293.9583 290.4277 286.0283 281.2526 276.6115 272.6440 269.1248 266.3609 264.4454 263.0185 261.5724 260.6624 260.9005 261.7827 263.0623 264.4953 265.2752 265.4847 265.5923 265.5012 264.8343 264.0581 263.9615 264.0928 263.8938 263.0947 261.8285 260.8244 260.2020 260.3043 260.5340 260.7823 260.9861 260.7058 260.3331 260.0993 259.7732 259.3325 258.9665 258.7256 258.1967 257.6810 257.3218 257.1227 256.8188 256.7885 257.1367 257.3951 258.2689 259.2161 260.6305 262.0217 262.8205 263.3642 263.9595 264.7857 265.7273 266.6311 267.9032 268.7642 270.2361 271.9255 274.0679 276.1660 278.0040 279.7547 281.1497 281.7132 281.7437 281.8387 282.4519 282.2410 281.0946 278.5739 275.7024 273.5928 272.1578 271.0199 270.0713 269.5663 270.0618 271.2610 273.0004 274.3850 276.0387 278.8815 282.4866 286.3318 290.4860 295.1727 299.6840 304.2615 308.5331 312.1107 315.1814 317.2042 317.9472 318.1005 317.8730 317.0099 315.2678 313.5189 311.2214 308.3907 304.9549 301.1407 297.4046 293.9658 290.9030 288.6947 287.1432 286.0381 285.7267 286.2300 287.2209 288.7897 291.0541 293.5961 296.5687 299.6394 302.3930 305.0887 307.7542 310.5218 312.9376 314.8728 316.7672 317.8691 318.4377 318.6443 318.4735 318.1873 318.2507 318.8757 320.1354 321.7155 323.3719 325.6655 328.1831 330.5662 332.9707 335.3300 337.3050 339.0832 340.4612 341.5256 342.0501 341.8140 340.9347 339.6126 338.1372 336.6423 335.0769 333.4485 331.6465 329.6819 327.6134 325.3887 323.0052 320.5377 318.1561 315.8332 313.6188 311.6797 309.6101 307.6274 305.7579 303.9340 302.3857 300.7585 299.2105 297.9898 297.0166 296.2024 295.4474 294.6565 293.8370 293.2788 292.6938 292.1135 291.4721 290.6419 289.8807 289.2260 288.5418 287.8609 287.3347 287.1732 287.3507 287.8770 288.6522 289.4850 290.3357 291.2615 292.2215 293.0206 293.6762 294.1459 294.6478 295.1696 295.7285 296.4366 297.0110 297.6407 298.6882 299.8190 300.6587 301.0701 300.9933 300.3858 299.1908 297.3043 295.1420 293.1469 291.1511 289.2417 287.4179 285.5262 283.5704 281.5727 279.6921 278.1050 277.1952 276.9156 276.8178 276.8217 277.0456 277.1912 276.9841 276.8012 276.6806
293.4409 292.9503 292.7508 292.0833 291.4620 291.2066 291.2335 290.6634 289.2657 287.4460 285.0122 282.5105 280.3243 279.0346 277.7868 275.1466 272.3286 269.7873 267.3760 264.6936 262.0074 258.9944 255.9996 253.3977 250.8614 248.6364 246.3659 244.2554 243.3332 243.4356 243.8872 245.0250 247.0351 249.1113 250.9362 252.4217 253.5989 254.7225 255.6342 255.6513 254.4450 252.0632 249.4419 247.0132 244.8356 243.0447 242.1940 242.0240 242.6795 243.6870 244.6619 245.7569 247.0834 248.4697 250.1596 252.1687 254.2725 257.0910 260.1295 262.8437 266.3881 269.9834 272.7778 275.1067 277.0755 278.9340 282.0731 286.1826 290.1825 293.5958 296.2536 298.2817 299.6040 300.4662 300.4430 299.7760 298.5618 296.4771 294.1959 291.3082 288.4958 286.1180 283.7405 281.7999 280.7414 280.7754 281.4718 282.5210 284.0899 286.1511 287.8256 289.1136 289.9903 291.1411 292.2595 293.6987 295.4631 296.0629 295.9479 294.4361 291.7105 287.8642 283.7858 279.5604 275.3050 271.7427 268.8918 266.8882 265.4198 264.3222 263.2018 262.2722 262.3928 263.7149 265.3971 266.7363 267.6126 268.4024 268.6202 268.6508 268.2803 267.4541 267.0266 266.8890 266.3359 265.7307 264.9666 264.3944 263.9146 263.6704 263.4605 263.9518 265.1108 265.4214 264.9341 264.2993 263.3293 262.5356 261.9503 261.2769 260.4150 259.4613 258.9214 258.3997 257.6988 257.0528 257.0813 257.1945 257.6531 258.2694 259.3903 260.6031 261.5589 262.2441 262.8198 263.4723 264.2267 265.0146 265.7515 266.8348 268.2376 270.1727 272.1734 273.9905 276.1070 278.0508 279.5715 280.1187 279.9307 279.7134 280.0187 280.0871 278.8345 276.6662 273.7967 271.7048 270.4753 269.6910 269.3365 269.0232 269.5705 270.9242 272.8948 274.8168 277.0098 279.9303 283.5326 287.7942 292.2931 296.9684 301.3907 305.3780 308.9698 311.8722 314.5527 316.4303 317.0541 316.7592 316.2634 315.0188 313.0201 310.9424 308.4960 305.6115 302.1532 298.2641 294.6454 291.4492 288.8148 286.8319 285.6227 285.0426 285.2678 286.3158 287.8865 290.0243 292.3163 294.9669 298.0953 301.4228 304.8879 308.0334 310.8379 313.4299 315.4276 316.9050 317.9836 318.5096 318.4348 318.1305 317.6161 317.0851 316.8711 317.2625 318.3297 319.7898 321.6863 324.2348 327.0193 329.5062 331.9974 334.4225 336.5228 338.3441 339.6687 340.5585 340.8770 340.4783 339.4981 338.3150 336.8752 335.2876 333.7737 332.2146 330.4083 328.5166 326.5749 324.4644 322.2920 319.9625 317.5948 315.2395 312.9989 310.8098 308.7025 306.8034 304.9333 303.2352 301.7338 300.2439 298.9717 297.8342 296.9116 296.1945 295.4636 294.7320 294.0809 293.6171 293.0988 292.4483 291.6085 290.6880 289.9059 289.2404 288.6434 287.9140 287.1974 286.8249 286.7424 287.0944 287.7727 288.5229 289.2907 290.1520 290.9628 291.6846 292.2789 292.8188 293.2727 293.7606 294.2621 294.7305 295.3118 296.0148 297.0181 297.8834 298.3443 298.3433 297.8326 297.0458 295.7383 293.9679 292.1048 290.2966 288.4342 286.7578 285.2556 283.6497 281.8214 279.7777 277.8852 276.3853 275.6587 275.4892 275.5246 275.6324 275.7577 275.8965 275.7364 275.6403 275.6360
294.2655 293.8658 293.5245 293.0508 292.5211 292.1848 291.9232 290.7685 288.7244 286.2474 283.9462 281.4777 279.3520 278.2418 276.8791 274.5817 272.0330 269.2051 266.0315 263.1007 259.9444 256.6178 253.5866 251.0594 248.9213 247.1324 245.3903 243.7699 242.6983 242.7841 243.7233 245.7001 247.9977 250.0644 252.1149 253.7213 255.0380 256.5634 257.7032 257.7587 256.4258 254.6954 252.6464 250.2292 247.4627 244.8495 243.1901 242.6991 242.8478 243.4624 244.3025 245.3128 246.1552 246.9953 248.2250 250.0426 252.6845 255.8982 259.1596 263.0112 267.1661 271.3642 274.7635 276.9514 278.4715 280.5640 283.6815 287.3860 291.1961 294.7430 297.4764 299.3150 300.4381 300.7861 300.3660 299.5814 298.1735 296.3328 294.3449 291.8594 289.1674 287.0070 285.4193 284.1478 283.3003 282.8767 283.1459 284.1282 285.4448 286.7693 287.8883 288.7450 289.5819 290.4124 291.4482 292.8281 293.8925 294.3904 293.6948 292.0722 289.0928 285.3537 281.4361 278.0247 274.5670 271.5009 269.0200 267.6077 266.5341 265.3048 264.2770 263.8037 264.2354 265.9909 267.8525 269.5126 270.7156 271.6288 272.1052 272.2281 271.6621 270.7116 270.0511 269.6801 269.0811 268.7393 268.3714 268.5359 268.3375 267.8880 267.6213 268.3215 269.6203 270.2176 269.9645 269.1624 267.7051 266.3931 265.1477 264.1215 262.8541 261.8100 260.9705 260.0517 258.9327 257.9911 257.6071 257.4858 257.4865 258.0060 258.7907 259.7341 260.4572 261.0881 261.5027 261.9962 262.6557 263.2309 263.8174 265.1100 266.6682 268.6237 270.2297 271.9759 273.9044 275.8050 277.4346 278.1314 277.8531 277.2528 277.3618 277.6077 276.6295 274.4843 271.9540 270.3000 269.2536 268.7323 268.7216 268.8077 269.4044 270.9450 272.9207 275.0517 277.2286 279.9977 283.7245 288.2404 293.2154 298.1137 302.6486 306.3372 309.2905 311.9735 314.1945 315.6382 316.0159 315.2330 314.2489 312.3850 310.2490 307.9438 305.2835 302.4735 299.1926 295.6330 292.1803 289.2356 286.9527 285.2817 284.4128 284.3560 285.0013 286.4506 288.6709 290.9619 293.0695 295.6401 298.6921 302.0712 305.7107 309.1988 312.4314 315.0043 316.7448 318.0734 318.6826 318.4706 318.0889 317.6413 317.0311 316.4673 316.0945 316.2109 316.9675 318.3851 320.2972 322.8744 325.7409 328.3868 330.9953 333.4684 335.6485 337.4766 338.8856 339.6835 339.7187 339.2297 338.2849 337.0416 335.6787 333.9420 332.2438 330.5132 328.7248 326.8875 325.1266 323.1260 321.2335 319.2139 316.9009 314.5517 312.2225 310.0154 307.9838 306.0573 304.2374 302.6015 301.2600 299.9600 298.7864 297.6887 296.8517 296.1374 295.4571 294.8916 294.3582 293.8795 293.2557 292.4734 291.5421 290.5299 289.6524 288.9730 288.4522 287.8551 287.2112 286.6626 286.3126 286.4913 287.0189 287.6318 288.3164 289.0414 289.7254 290.4223 291.0681 291.6279 292.1082 292.5691 292.8531 293.1871 293.6876 294.4103 295.2362 295.8652 295.9651 295.6122 294.9157 293.8542 292.5516 290.9235 289.1768 287.5151 285.9667 284.5938 283.4797 282.0368 280.1475 278.1249 276.2606 274.8116 274.1013 274.0850 274.2750 274.3517 274.3511 274.3872 274.3575 274.3336 274.4776
294.3982 294.0258 293.7465 293.4217 293.1130 292.6554 291.8557 290.3897 287.8916 285.2564 283.1352 280.7218 278.2740 276.5952 275.1067 273.4333 271.3607 268.3597 264.9889 261.4297 258.0569 254.8685 251.9907 249.4548 247.2839 245.6068 244.1120 243.0465 242.2749 242.4210 243.9554 246.4299 248.8868 251.0070 253.1854 255.0738 257.0473 258.8360 259.7128 259.2086 258.0384 256.9803 255.4623 253.3683 250.5885 247.4379 244.8610 243.5790 243.3233 243.3642 243.9519 244.7171 245.4051 246.1213 246.8631 248.6911 251.5728 254.6370 258.4203 263.4140 267.9059 271.8376 275.0190 277.2916 279.4011 282.1242 285.1917 288.9356 292.5070 295.7114 298.3505 300.0101 300.6714 300.7596 300.0557 299.1530 297.6130 296.2693 294.6536 292.3582 289.8642 288.1088 286.8340 286.0764 285.4399 284.7559 284.7714 285.6176 286.6669 287.3981 287.6968 288.1375 288.6883 289.2058 290.0235 291.0847 291.9736 291.8383 290.9586 289.3116 286.6620 283.5473 280.2330 277.1383 274.2075 271.5168 269.5048 268.2986 267.2703 265.9410 265.2773 265.2944 266.2099 268.1609 270.4203 272.3200 274.0393 275.3431 275.7919 276.0695 275.3026 274.0856 273.5597 273.2691 272.6846 272.2795 272.2541 272.8461 272.9156 272.7991 272.8070 273.3650 274.2389 274.8009 274.7664 273.8895 271.9791 270.0201 268.1548 266.6848 265.2445 264.1328 263.0689 261.9117 260.6652 259.4905 258.6678 258.1652 258.0375 258.2450 258.7198 259.0294 259.4579 259.8999 260.0878 260.4834 261.0556 261.5292 262.3040 263.5879 265.2844 267.1062 268.5425 270.0558 271.6575 273.5477 275.0422 275.6096 275.4325 275.0056 274.8775 274.8047 273.7123 271.9500 270.1714 268.9556 267.9954 267.6813 267.6796 267.9851 268.9762 270.7521 272.7180 274.7083 276.6617 279.4805 283.4097 288.0064 292.6866 297.5481 302.0394 305.5086 308.1129 310.5382 312.7572 314.0610 314.0820 313.0299 311.0311 309.0505 306.8989 304.6247 301.8041 298.8297 296.1619 293.0976 289.8641 287.0412 285.0669 283.8781 283.3676 283.7339 284.8547 286.8090 289.3204 291.4695 293.4440 295.9448 298.8928 302.1712 305.5710 309.1286 312.5053 315.2227 316.7337 317.7084 318.0062 317.6712 317.1292 316.6006 315.9788 315.5431 315.1444 314.9586 315.4842 316.9224 318.8215 321.3780 324.3072 327.1057 329.7950 332.3664 334.5835 336.6613 338.2276 338.9224 338.7843 338.2888 337.3194 336.1280 334.6931 332.8914 330.8982 328.9822 327.0264 325.2432 323.4774 321.6483 319.8793 317.9519 315.8027 313.6323 311.5656 309.5660 307.6254 305.7426 303.8430 302.3488 301.1142 299.8557 298.7603 297.7154 296.7291 295.9944 295.5052 295.1151 294.5688 293.9266 293.1672 292.3468 291.3445 290.2599 289.3666 288.6640 288.1382 287.6236 287.1234 286.5127 286.0350 286.0153 286.2816 286.8203 287.4258 288.0663 288.7558 289.4449 290.0866 290.6118 291.2184 291.7572 291.9072 292.0185 292.3450 292.9095 293.4217 293.9534 293.8416 293.4044 292.5692 291.3904 290.2632 288.8125 286.9767 285.4895 284.2586 283.2405 282.2178 280.6816 278.6507 276.8064 275.0293 273.6346 272.8760 272.9238 273.0726 273.0365 272.9063 272.8008 272.7521 272.8904 273.1631
294.2456 293.7665 293.3901 292.9819 292.6744 292.0065 290.9679 289.2708 286.7230 284.1952 281.8929 279.5034 276.8625 274.4036 272.4454 271.2134 269.6308 267.1450 263.7996 260.2731 256.8507 253.9402 251.3717 248.5668 246.0334 244.3824 243.3148 242.6366 242.1047 242.4360 244.1190 246.6750 249.3434 251.8728 254.2506 256.6276 259.0538 261.2262 261.7658 260.8784 260.0991 259.6218 258.4764 256.3244 253.4838 250.3163 247.4897 245.4545 244.4655 244.0918 244.0062 244.5715 245.2748 245.8568 246.3947 248.0942 250.6915 253.8710 258.2260 263.6264 268.0882 271.4685 274.5283 277.3839 280.4462 283.3407 286.5943 290.3680 293.7495 296.5421 298.5776 299.7956 300.3186 300.3452 299.5756 298.2318 297.0336 295.7419 294.3680 292.3228 290.3371 289.1001 288.2408 287.5660 287.1541 286.3581 286.4570 287.1104 287.5819 287.6031 287.4091 287.5730 287.7564 288.0708 288.7976 289.2578 289.6760 289.4573 288.8291 287.3683 285.0317 282.7052 279.9970 276.9350 274.0438 271.5842 269.5379 268.3125 267.3711 266.3788 266.2850 267.0936 268.4425 270.3219 272.6290 274.9605 277.2941 278.9395 279.6854 279.7944 279.1924 278.2007 277.5532 277.2250 276.7347 276.4364 276.6042 277.1362 277.7628 278.0630 278.2726 278.5032 278.7403 279.1862 279.0192 277.7401 275.3456 272.8604 270.7073 268.8619 267.4312 266.0435 264.8211 263.7613 262.5826 261.3304 260.2371 259.6313 259.1981 259.2472 259.4607 259.4113 259.2165 259.0172 258.9644 259.2566 259.6761 260.2033 261.0331 262.2191 263.9948 265.6015 267.0132 268.4622 269.6756 271.0900 272.5579 273.1960 273.3224 272.9462 272.4544 271.7608 270.8234 269.3971 268.2823 267.3103 266.6391 266.4650 266.6647 267.1090 268.3107 270.0459 271.9948 273.8023 276.0414 279.3294 283.3116 287.0138 291.0607 295.3203 299.4607 302.7450 305.3993 307.6580 309.6136 310.8507 310.7733 309.6521 307.6216 305.2075 303.1291 300.6901 297.9515 295.4112 293.0588 290.4417 287.7343 285.2162 283.3689 282.5832 282.7665 283.6148 285.0785 287.1396 289.5303 291.7176 293.6971 296.0624 298.8880 301.9329 305.0128 308.3550 311.5685 313.9149 315.4594 316.1985 316.4746 315.9121 315.2752 314.9583 314.1716 313.7186 313.2470 313.1454 313.5305 314.8885 316.8939 319.5175 322.4423 325.3665 328.2907 331.1623 333.6160 335.9400 337.5345 338.2346 338.2097 337.7091 336.8483 335.6401 334.0363 332.1099 330.0247 327.9519 325.8505 323.7762 321.8412 320.0555 318.1988 316.2755 314.3293 312.5764 310.8555 309.1044 307.3490 305.5562 303.7192 302.2365 300.9975 299.8294 298.7424 297.7256 296.8084 296.0533 295.5810 295.1564 294.6789 294.0464 293.0381 292.0809 291.0509 289.9495 289.1136 288.4109 287.7911 287.3099 286.8560 286.2613 285.7880 285.6182 285.7095 286.1246 286.7179 287.3295 287.9296 288.6006 289.2939 289.9492 290.6672 291.2998 291.4317 291.4384 291.5476 291.6980 292.0651 292.3116 291.9966 291.5575 290.7477 289.5738 288.4462 287.0929 285.6694 284.2763 283.1008 282.2136 280.9885 279.3262 277.5385 275.9558 274.5613 273.2254 272.3392 272.0533 271.9979 271.7579 271.5604 271.2728 271.1546 271.3297 271.5799
294.0125 293.4359 292.9409 292.3848 291.5495 290.1815 288.8384 287.2527 284.9093 282.2788 279.7718 277.2902 274.3722 271.5875 269.6494 268.2839 267.0670 265.2932 262.7587 259.7975 256.7029 253.7374 250.8151 248.0054 245.3799 243.6068 242.6805 242.4232 242.4871 243.0334 244.5741 246.9394 249.8800 252.8075 255.6189 258.1919 260.8488 263.1414 263.4941 262.8799 262.5811 262.4499 261.4148 259.1948 256.2172 253.1070 250.3598 247.9670 246.2651 245.3742 244.7480 245.0459 246.0022 246.5738 247.0121 248.1283 250.2291 253.8183 258.3068 262.9671 267.1122 270.3740 273.4514 276.9377 280.6650 284.3266 288.1362 291.7284 294.5640 296.8560 298.6035 299.3636 299.2574 299.0693 298.2803 297.0620 295.8907 294.5594 293.1686 291.8340 290.5722 289.6650 289.1516 288.5664 288.2035 287.8704 287.6550 287.9622 287.5637 286.7661 286.4395 286.6375 286.9778 287.2723 287.6172 287.7919 287.6756 287.3136 287.1505 286.3066 284.4202 281.9950 279.4748 276.6347 273.8346 271.1189 268.6878 267.3851 267.1062 267.1560 267.8191 268.8187 270.2905 272.1258 274.7142 277.6015 280.2597 282.1298 283.3884 283.8797 283.4271 282.8639 282.2263 281.7232 281.2496 281.1433 281.6591 282.1303 282.9305 283.4496 283.5195 283.2564 282.9815 282.5587 281.8528 280.4758 278.0077 275.4314 273.1593 271.2570 269.6446 267.9567 266.8329 265.6682 264.5676 263.1609 262.1295 261.2868 260.6948 260.8204 260.9181 260.7063 260.1414 259.1141 258.8073 258.5383 258.7727 259.2670 259.9019 261.3609 262.7735 264.3194 265.9089 267.2106 268.0307 268.8722 270.1907 270.9242 270.9990 270.6112 269.8297 268.9886 268.0364 267.2189 266.3376 265.6202 265.2309 265.2140 265.6307 266.2897 267.6254 269.1875 270.7761 272.5865 275.2820 279.0509 283.0035 286.1924 289.4346 293.0793 296.4566 299.4358 302.1107 304.1010 305.5394 306.6658 306.7201 305.7724 303.8286 301.3610 299.2271 296.8035 294.1862 292.1109 290.3720 288.1283 285.7120 283.8394 282.2952 281.9452 282.5845 283.6924 285.2759 287.2316 289.3364 291.6647 293.8881 296.1766 298.7854 301.6570 304.5623 307.5951 310.3334 312.3587 313.7914 314.4549 314.2034 313.5621 312.8215 312.3247 311.6619 311.0633 310.8456 310.8425 311.4792 312.7514 314.5915 317.3042 320.3404 323.3591 326.5573 329.6574 332.5850 335.0295 336.7546 337.6877 337.8564 337.5482 336.7427 335.4611 333.6452 331.6175 329.4539 327.2355 324.9772 322.6522 320.5101 318.5631 316.6845 314.8163 313.1572 311.6991 310.1281 308.5890 307.0183 305.2769 303.4717 302.0664 300.8429 299.6286 298.5489 297.7206 296.9431 296.1613 295.6083 295.0673 294.5579 293.9199 292.9335 291.8784 290.7720 289.7621 288.8788 288.1120 287.4467 286.8989 286.3948 285.9238 285.5565 285.2867 285.2821 285.6010 286.0975 286.6289 287.1814 287.9828 288.7582 289.4521 290.1586 290.8467 291.0734 291.0031 290.9557 290.9258 291.0151 290.9317 290.5297 290.0058 289.2248 288.2153 287.1842 286.0097 284.5430 283.4543 282.5029 281.5219 280.0700 278.4798 277.1142 275.8922 274.8649 273.6495 272.4585 271.6398 271.0933 270.6903 270.1812 269.8468 269.6755 269.7629 269.9719
294.0507 293.3526 292.5550 291.3680 289.7820 287.8716 286.0416 283.9864 281.8181 279.2873 276.6893 273.9938 271.1771 268.6662 267.0388 265.6831 264.6382 263.5093 261.7824 259.3070 256.3146 253.1214 250.1601 247.4085 244.9321 243.2130 242.5235 242.6448 243.2269 244.1622 245.5597 247.8775 251.0693 254.3525 257.3415 260.1838 262.8954 264.9412 265.6581 265.5475 265.1449 264.8372 264.0538 262.1959 259.4238 256.0485 253.2135 250.5744 248.7591 247.2966 246.2271 246.2244 247.0600 247.6974 248.1127 248.8690 250.6086 253.8953 257.8494 261.6107 265.2997 268.7398 272.2144 276.2128 280.6186 284.6780 288.6099 292.0684 294.6820 296.2499 297.5179 297.7578 297.5154 296.9124 296.0903 295.0156 294.2077 293.3501 292.0134 290.9007 290.2720 289.8383 289.4824 289.1305 289.0444 288.5938 288.3665 288.0385 287.1205 285.8820 285.3658 285.6652 286.1123 286.3355 286.3195 286.3689 286.3511 286.2026 286.0830 285.3422 283.5489 281.5453 279.1420 276.2145 272.8545 269.8467 267.8719 266.6608 266.6493 267.8402 269.0202 270.2794 271.6638 274.0512 276.8734 279.6803 282.6192 285.4214 287.2248 287.7536 287.6846 287.6081 286.9535 286.4079 286.0331 286.4003 286.8748 287.6269 288.4337 288.5997 288.1874 287.4940 286.8399 286.0184 284.8399 283.3795 281.1701 278.8507 276.3559 274.1045 272.1072 270.2687 269.2071 267.9302 266.3433 264.8344 263.7376 262.8672 262.4514 262.4420 262.2878 261.9195 261.2413 260.1197 259.2173 258.5931 258.6396 258.8711 259.4108 260.4919 261.6916 263.1640 264.8271 266.1064 266.7797 267.1499 267.8877 268.5265 268.6621 268.1497 267.3060 266.3065 265.6226 265.0753 264.5049 264.1052 263.9502 264.2107 264.6660 265.4646 266.7401 268.2948 269.5522 271.2385 274.1256 277.8369 281.6364 284.7968 288.0463 291.1143 293.6438 295.9386 298.2288 300.1440 301.1675 302.0146 302.2833 301.3964 299.6707 297.4343 295.2938 293.1272 290.8398 289.1498 287.8402 286.0887 284.0697 282.7332 281.7219 281.6337 282.5317 283.8719 285.3996 287.1993 289.2854 291.6060 294.1439 296.6537 299.3556 302.1234 304.9125 307.5442 309.9991 311.6283 312.4327 312.6346 312.1691 311.3921 310.4850 309.5659 308.7760 308.3114 308.3338 308.6320 309.2853 310.3987 312.2686 314.8227 317.9883 321.3105 324.8405 328.1923 331.3891 334.0732 336.2070 337.4411 337.8966 337.6133 336.7173 335.2735 333.4603 331.3096 329.0836 326.7460 324.4217 321.9981 319.6798 317.6324 315.7155 314.0110 312.6303 311.0987 309.5852 308.1059 306.5777 304.8353 303.1101 301.7122 300.5195 299.4354 298.4844 297.6891 296.9533 296.1901 295.5552 294.9030 294.3030 293.5393 292.6714 291.6100 290.4999 289.5588 288.6115 287.8171 287.1093 286.4590 286.0316 285.6473 285.2544 284.9528 284.9047 285.1461 285.5338 286.0247 286.7159 287.6024 288.3582 288.9163 289.5456 290.0844 290.3724 290.4751 290.3494 290.2548 290.1339 289.8888 289.3456 288.6936 288.0899 287.0887 286.0292 284.9252 283.7216 282.9046 282.1677 280.9465 279.5739 278.3247 277.4529 276.6999 275.5275 274.2525 272.9054 271.6158 270.5099 269.6352 268.9737 268.5116 268.2577 268.1939 268.3053
294.5547 293.8754 292.2311 290.4121 288.4716 286.0771 283.4607 280.8664 278.4037 275.9453 273.4116 270.6068 267.9451 265.6383 264.1927 263.3525 262.7879 262.0207 260.5674 258.2588 255.3462 252.1513 249.3019 246.7768 244.7055 243.3152 242.8736 243.1893 243.6954 244.7033 246.5104 249.1595 252.4674 255.9916 259.4314 262.6067 264.8755 266.6820 267.8511 267.9381 267.3217 267.0208 266.4298 264.7391 261.8215 258.6756 255.7786 253.4833 251.5121 249.6950 248.2341 247.6084 247.9539 248.6817 249.0083 249.7796 251.4123 253.8551 256.5725 259.7668 263.2011 267.1091 271.1303 275.5863 280.0620 284.1852 287.9645 291.5202 293.3730 294.4713 294.9784 294.9401 294.7435 294.1482 293.2194 292.5500 292.0428 291.6630 290.6642 289.7205 289.4399 289.3548 289.2137 289.1946 289.0274 288.6265 288.5387 288.1894 286.9007 285.7176 285.0856 284.8070 285.2415 285.4945 285.2698 285.1975 285.4434 285.4978 285.3895 284.7379 283.1555 281.2919 278.9506 275.9208 272.4440 269.3849 267.3715 266.2658 266.6062 267.6270 269.4110 271.4819 273.4932 275.9526 278.8512 281.6628 284.9217 288.1219 290.4583 291.5863 291.7472 291.6389 291.2103 291.0279 290.9699 291.3378 291.9550 292.8281 293.4586 293.3507 292.5640 291.9411 291.1088 290.0320 288.7083 287.2217 284.9000 282.1677 279.3126 276.6097 274.1924 272.7842 271.5605 270.0921 268.1775 266.7146 265.5202 264.7206 264.1300 263.8109 263.4691 262.9332 262.1248 260.9263 259.8595 259.2209 259.0950 259.1077 259.3709 260.1257 260.9975 262.1701 263.5505 264.8303 265.4735 265.7121 265.9773 266.3622 266.2488 265.7025 264.8785 264.1001 263.4093 263.0244 263.0105 262.9139 262.8065 263.1174 263.6880 264.6792 265.8646 267.1572 268.3731 270.1695 272.8665 276.1827 279.6156 282.7262 285.8144 288.7850 290.7015 292.1584 294.1415 295.9028 296.7122 297.1421 297.2398 296.5860 295.3472 293.4253 291.4786 289.7298 287.8380 286.4597 285.6144 284.1961 282.7456 281.7755 281.2391 281.3799 282.3794 283.8980 285.4665 287.1694 289.1296 291.3873 294.1302 297.2277 300.0966 302.9579 305.7630 308.3246 310.2624 311.3544 311.5628 311.3885 310.5602 309.5532 308.6034 307.4289 306.3006 305.7853 305.8621 306.3915 307.1605 308.5111 310.4254 313.2424 316.5172 320.2209 323.9084 327.5630 330.7714 333.5232 335.8941 337.3676 337.8194 337.5417 336.4962 334.9031 333.0043 330.9531 328.8205 326.6062 324.1731 321.7899 319.5000 317.2811 315.3810 313.7920 312.3256 310.7897 309.2517 307.6439 305.9908 304.3789 302.6983 301.2595 300.1209 299.1532 298.3737 297.5797 296.7520 295.9262 295.2947 294.6520 293.9761 293.1595 292.2422 291.2243 290.1779 289.2678 288.3353 287.4276 286.6687 286.0732 285.6556 285.2581 284.8646 284.5964 284.5222 284.6961 284.9958 285.5080 286.2768 287.1110 287.8095 288.2911 288.7003 289.1467 289.5476 289.7401 289.6718 289.5470 289.3534 288.9976 288.2715 287.6921 286.9792 285.9126 284.9655 284.0195 283.1599 282.4383 281.6090 280.4251 279.2793 278.5254 277.8364 277.2043 276.3038 274.9048 273.3736 271.6826 270.0635 268.7711 267.9051 267.2547 266.9338 266.7448 266.5880
